# .PCD v0.7 - Point Cloud Data file format
VERSION 0.7
FIELDS x y z rgba
SIZE 4 4 4 4
TYPE F F F U
COUNT 1 1 1 1
WIDTH 557
HEIGHT 1
VIEWPOINT 0 0 0 1 0 0 0
POINTS 557
DATA ascii
0.028420551 -0.16862857 1.0910001 10698294
0.032209974 -0.16862857 1.0910001 10960702
0.035052001 -0.16862857 1.0910001 6638720
0.043578167 -0.16862857 1.0910001 11618121
0.046420231 -0.16862857 1.0910001 2053824
0.028420551 -0.16673389 1.0910001 2053824
0.032209974 -0.16673389 1.0910001 11091777
0.035052001 -0.16673389 1.0910001 6638979
0.037894066 -0.16673389 1.0910001 11616074
0.043578167 -0.16673389 1.0910001 11881283
0.028420551 -0.16389184 1.0910001 10761785
0.031262618 -0.16389184 1.0910001 6638721
0.035052001 -0.16389184 1.0910001 2053824
0.037894066 -0.16389184 1.0910001 11750726
0.043578167 -0.16389184 1.0910001 12281405
0.02652584 -0.16010243 1.0910001 6244222
0.028420551 -0.16010243 1.0910001 10962481
0.031262618 -0.16010243 1.0910001 9131353
0.035052001 -0.16010243 1.0910001 6970746
0.043578167 -0.16104977 1.0910001 12681535
0.02652584 -0.15726037 1.0910001 10902042
0.028420551 -0.15726037 1.0910001 11689749
0.031262618 -0.15726037 1.0910001 11891228
0.028420551 -0.15347096 1.0910001 13012276
0.031578403 -0.15410255 1.0910001 9009254
0.035999358 -0.15347096 1.0910001 2053824
0.02652584 -0.15157628 1.0910001 2053824
0.028420551 -0.15157628 1.0910001 2053824
0.031262618 -0.15157628 1.0910001 7894914
0.035052001 -0.15157628 1.0910001 13473859
0.028420551 -0.14968155 1.0910001 13800518
0.031262618 -0.14968155 1.0910001 8028550
0.035052001 -0.14968155 1.0910001 2053824
0.028524751 -0.17209935 1.095 6376054
0.031377237 -0.17209935 1.095 6310263
0.034229688 -0.17209935 1.095 10829374
0.036131345 -0.17209935 1.095 2053824
0.04754125 -0.17114851 1.095 11552574
0.030426409 -0.16924684 1.095 2053824
0.038033001 -0.16924684 1.095 2053824
0.040885489 -0.16924684 1.095 6769795
0.049442906 -0.16924684 1.095 11681870
0.026623094 -0.16544354 1.095 2053824
0.030426409 -0.16734521 1.095 10893629
0.040885489 -0.16639438 1.095 2053824
0.046590421 -0.16639438 1.095 2053824
0.049442906 -0.16639438 1.095 6901382
0.026623094 -0.16354191 1.095 2053824
0.040885489 -0.16354191 1.095 2053824
0.046590421 -0.16354191 1.095 7298436
0.049442906 -0.16354191 1.095 12674126
0.051344566 -0.16354191 1.095 2053824
0.024721436 -0.16068943 1.095 2053824
0.038033001 -0.16068943 1.095 7301500
0.040885489 -0.16068943 1.095 7235705
0.043737937 -0.15973862 1.095 12945475
0.046590421 -0.16068943 1.095 4677538
0.049442906 -0.16068943 1.095 12809036
0.051344566 -0.16068943 1.095 2053824
0.024721436 -0.15783694 1.095 10180138
0.034229688 -0.15783694 1.095 12220993
0.037082173 -0.15783694 1.095 12615495
0.040885489 -0.15783694 1.095 13012548
0.043737937 -0.15783694 1.095 13078344
0.046590421 -0.15783694 1.095 13077322
0.049442906 -0.15783694 1.095 13076802
0.052295379 -0.15783694 1.095 2053824
0.026623094 -0.15498447 1.095 2053824
0.028524751 -0.15593533 1.095 12348708
0.030426409 -0.15593533 1.095 2053824
0.034229688 -0.15498447 1.095 2053824
0.037399117 -0.15530144 1.095 9337959
0.040885489 -0.15498447 1.095 2053824
0.043737937 -0.15498447 1.095 13210170
0.025672264 -0.15118119 1.095 6639479
0.038033001 -0.15118119 1.095 13475636
0.040885489 -0.15118119 1.095 7567484
0.043737937 -0.15118119 1.095 13541452
0.026623094 -0.14832872 1.095 12939589
0.028524751 -0.14832872 1.095 13928523
0.031377237 -0.14832872 1.095 8094088
0.026623094 -0.14547624 1.095 2053824
0.028524751 -0.14547624 1.095 13795916
0.031377237 -0.14547624 1.095 2053824
0.026623094 -0.14262375 1.095 13338129
0.028524751 -0.14262375 1.095 13996864
0.031377237 -0.14262375 1.095 8685200
0.030426409 -0.14072208 1.095 2053824
0.0286029 -0.17924483 1.098 8395804
0.031463202 -0.17829141 1.098 2053824
0.034323465 -0.177338 1.098 9910599
0.036230333 -0.177338 1.098 2053824
0.0286029 -0.17543112 1.098 2053824
0.031463202 -0.17543112 1.098 2053824
0.034323465 -0.17543112 1.098 10633026
0.037183769 -0.17543112 1.098 6375292
0.040044069 -0.17543112 1.098 10827307
0.043857768 -0.17543112 1.098 11089702
0.026696032 -0.17257085 1.098 2053824
0.038137201 -0.17257085 1.098 6573693
0.040679693 -0.17225304 1.098 8145767
0.043857768 -0.17257085 1.098 11288379
0.045764636 -0.17257085 1.098 6770304
0.026696032 -0.16971052 1.098 2053824
0.051485237 -0.16971052 1.098 2053824
0.02542479 -0.16716807 1.098 4869264
0.052120846 -0.16716807 1.098 5462678
0.020975469 -0.16303653 1.098 2053824
0.022882335 -0.16303653 1.098 5915767
0.024789168 -0.16398996 1.098 10171953
0.053392064 -0.16303653 1.098 2053824
0.055298932 -0.16208309 1.098 12872527
0.020022035 -0.16017626 1.098 5653622
0.022882335 -0.16017626 1.098 2053824
0.053392064 -0.16017626 1.098 2053824
0.055298932 -0.16017626 1.098 12874569
0.020975469 -0.15731595 1.098 5849720
0.022882335 -0.15731595 1.098 5981053
0.024789168 -0.15636253 1.098 2053824
0.046718068 -0.15636253 1.098 2053824
0.049578369 -0.15636253 1.098 13339463
0.05243865 -0.15636253 1.098 2053824
0.055298932 -0.15826938 1.098 2053824
0.022882335 -0.15445565 1.098 10301480
0.024789168 -0.15445565 1.098 2053824
0.046718068 -0.15445565 1.098 2053824
0.049578369 -0.15445565 1.098 13471820
0.05243865 -0.15445565 1.098 2053824
0.020975469 -0.15254882 1.098 9842480
0.022882335 -0.15159538 1.098 10695461
0.024789168 -0.15064195 1.098 2053824
0.046718068 -0.15159538 1.098 7763336
0.049578369 -0.15159538 1.098 7896203
0.051485237 -0.15254882 1.098 2053824
0.022882335 -0.14873511 1.098 11157299
0.024789168 -0.14873511 1.098 12016700
0.034323465 -0.14873511 1.098 2053824
0.037183769 -0.14873511 1.098 14132810
0.040997505 -0.14873511 1.098 14460740
0.043857768 -0.14873511 1.098 14264136
0.024789168 -0.1458748 1.098 2053824
0.034323465 -0.1458748 1.098 8291716
0.037183769 -0.1458748 1.098 5205671
0.040044069 -0.14682822 1.098 2053824
0.0257426 -0.14206105 1.098 7366771
0.0286029 -0.14110762 1.098 14195552
0.032416634 -0.14110762 1.098 2053824
0.034323465 -0.14206105 1.098 15382621
0.037183769 -0.14301451 1.098 15383859
0.0286029 -0.13920078 1.098 15180929
0.030509768 -0.13920078 1.098 15578502
0.028707102 -0.18181166 1.102 6365468
0.031577822 -0.18181166 1.102 6757918
0.034448508 -0.18181166 1.102 7216682
0.040189948 -0.18181166 1.102 7939857
0.026793286 -0.17894092 1.102 2053824
0.028707102 -0.17798404 1.102 9315613
0.034448508 -0.17989781 1.102 9183288
0.037638199 -0.1792599 1.102 2053824
0.040189948 -0.17894092 1.102 6112625
0.043060649 -0.17894092 1.102 6046313
0.046888262 -0.17894092 1.102 3950997
0.026793286 -0.17607021 1.102 2053824
0.04210376 -0.17511332 1.102 6506612
0.047207229 -0.17543229 1.102 5065356
0.049758982 -0.17415644 1.102 11288874
0.053586572 -0.17415644 1.102 2053824
0.049758982 -0.17224261 1.102 11552828
0.052629687 -0.17224261 1.102 6770305
0.022008788 -0.168415 1.102 2053824
0.024879472 -0.17032878 1.102 2053824
0.053586572 -0.17032878 1.102 2053824
0.055500388 -0.16937189 1.102 6901119
0.057414204 -0.16937189 1.102 2053824
0.015310439 -0.16650116 1.102 8598326
0.019138068 -0.16650116 1.102 9188913
0.022008788 -0.16650116 1.102 9713703
0.053586572 -0.16650116 1.102 12280632
0.055500388 -0.16650116 1.102 2053824
0.057414204 -0.16650116 1.102 12280626
0.016267346 -0.16363046 1.102 3755417
0.019138068 -0.16363046 1.102 2053824
0.055500388 -0.16458738 1.102 2053824
0.058052145 -0.1633115 1.102 5594522
0.016267346 -0.16075978 1.102 5522547
0.058371112 -0.16075978 1.102 7431559
0.016586317 -0.15820801 1.102 2053824
0.019138068 -0.15788905 1.102 2053824
0.055500388 -0.15693216 1.102 2053824
0.058371112 -0.15788905 1.102 2053824
0.02105188 -0.15501833 1.102 2053824
0.053586572 -0.15310456 1.102 2053824
0.055500388 -0.15406144 1.102 7563910
0.058371112 -0.15406144 1.102 7564422
0.02105188 -0.15119073 1.102 2053824
0.052629687 -0.15119073 1.102 2053824
0.055500388 -0.15119073 1.102 13605705
0.058371112 -0.15119073 1.102 13470292
0.019138068 -0.14927694 1.102 10235190
0.021689817 -0.14800107 1.102 7882599
0.043060649 -0.14736313 1.102 8357502
0.046888262 -0.14832003 1.102 7961991
0.049758982 -0.14832003 1.102 14263890
0.052629687 -0.14832003 1.102 2053824
0.055500388 -0.14927694 1.102 14132039
0.058371112 -0.14927694 1.102 2053824
0.022965696 -0.14544933 1.102 2053824
0.040189948 -0.14544933 1.102 2053824
0.043060649 -0.14544933 1.102 2053824
0.046888262 -0.14544933 1.102 2053824
0.049758982 -0.14544933 1.102 15119446
0.052629687 -0.14544933 1.102 15122761
0.024879472 -0.14162166 1.102 2053824
0.037319228 -0.14162166 1.102 2053824
0.040189948 -0.14257857 1.102 15846217
0.043060653 -0.14257857 1.102 5403559
0.046888262 -0.14257857 1.102 2053824
0.049758982 -0.14353549 1.102 15121756
0.052629687 -0.14353549 1.102 2053824
0.055500388 -0.14353549 1.102 2053824
0.026793286 -0.13970789 1.102 14718332
0.03253473 -0.13970789 1.102 15976324
0.034448508 -0.13970789 1.102 16042115
0.037319228 -0.13970789 1.102 9147286
0.040189948 -0.13970789 1.102 16373867
0.043060649 -0.13970789 1.102 16308072
0.046888262 -0.13970789 1.102 15714908
0.026793286 -0.13779406 1.102 2053824
0.028707102 -0.13779406 1.102 2053824
0.031577822 -0.13779406 1.102 2053824
0.034448508 -0.13683718 1.102 16575124
0.037000261 -0.13715614 1.102 2053824
0.040189948 -0.13683718 1.102 16707471
0.04210376 -0.13779406 1.102 2053824
0.023028215 -0.18038757 1.105 8004124
0.024947202 -0.18038757 1.105 2053824
0.038380336 -0.1823066 1.105 7742231
0.043177877 -0.1823066 1.105 8137226
0.047015905 -0.1823066 1.105 7875339
0.049894441 -0.18134709 1.105 8726555
0.05245313 -0.18102726 1.105 9123124
0.055651478 -0.18038757 1.105 9845825
0.049894441 -0.17846857 1.105 2053824
0.052772962 -0.17846857 1.105 2053824
0.055651478 -0.17846857 1.105 2053824
0.057570502 -0.17846857 1.105 2053824
0.023028215 -0.17559004 1.105 2053824
0.024947202 -0.17559004 1.105 5915755
0.049894441 -0.17654954 1.105 11025188
0.05245313 -0.17590988 1.105 2053824
0.055651478 -0.17559004 1.105 11421514
0.058210175 -0.1752702 1.105 2053824
0.06524656 -0.17463055 1.105 14007994
0.067165583 -0.17463055 1.105 15461830
0.016311631 -0.17271151 1.105 2053824
0.019190168 -0.17271151 1.105 9189179
0.023028215 -0.17271151 1.105 2053824
0.024947202 -0.17271151 1.105 2053824
0.055651478 -0.17271151 1.105 11617612
0.05853001 -0.17271151 1.105 11750734
0.06524656 -0.17271151 1.105 2053824
0.067165583 -0.17271151 1.105 16179117
0.0057570357 -0.16983297 1.105 7639228
0.0076760594 -0.16983297 1.105 11171487
0.010234758 -0.16951315 1.105 6243688
0.013433132 -0.16983297 1.105 8597809
0.016311631 -0.16983297 1.105 2053824
0.019190168 -0.16983297 1.105 5654141
0.022068704 -0.17079246 1.105 2053824
0.059489522 -0.16983297 1.105 2053824
0.06140855 -0.16983297 1.105 11814726
0.064287052 -0.16983297 1.105 2053824
0.067165583 -0.16983297 1.105 14794891
0.011514108 -0.16599494 1.105 2053824
0.013433132 -0.16599494 1.105 8206636
0.017271144 -0.16695443 1.105 8861235
0.059489522 -0.16599494 1.105 2053824
0.06140855 -0.16599494 1.105 12147014
0.063327536 -0.16599494 1.105 2053824
0.011514108 -0.1631164 1.105 2053824
0.013433132 -0.1631164 1.105 8338482
0.06140855 -0.1631164 1.105 12411218
0.064287052 -0.1631164 1.105 7100547
0.011514108 -0.16023789 1.105 5326979
0.013433132 -0.16023789 1.105 8666164
0.06140855 -0.16023789 1.105 12675152
0.063967213 -0.16055773 1.105 2053824
0.011514108 -0.15735938 1.105 2053824
0.013433132 -0.15735938 1.105 8995125
0.015352119 -0.15735938 1.105 2053824
0.06140855 -0.15735938 1.105 2053824
0.063327536 -0.15735938 1.105 12675149
0.011514108 -0.15448084 1.105 5589886
0.013433132 -0.15448084 1.105 5655674
0.016311631 -0.15448084 1.105 5720951
0.019190168 -0.15448084 1.105 5916284
0.06140855 -0.15448084 1.105 7498113
0.063327536 -0.15448084 1.105 2053824
0.011514108 -0.15160231 1.105 9454898
0.013433132 -0.15160231 1.105 9519925
0.016311631 -0.15160231 1.105 9911098
0.019190168 -0.15160231 1.105 2053824
0.06140855 -0.15160231 1.105 13271898
0.063327536 -0.15160231 1.105 13140315
0.011514108 -0.14968333 1.105 2053824
0.013433132 -0.14968333 1.105 9781810
0.016631469 -0.14904365 1.105 2053824
0.019190168 -0.1477643 1.105 2053824
0.055651478 -0.1477643 1.105 2053824
0.05853001 -0.1477643 1.105 2053824
0.06140855 -0.14872381 1.105 2053824
0.063327536 -0.14872381 1.105 7961741
0.019190168 -0.14584529 1.105 10569243
0.021109192 -0.14584529 1.105 2053824
0.055651478 -0.14584529 1.105 14921292
0.05853001 -0.14584529 1.105 14722125
0.06140855 -0.14584529 1.105 14656571
0.063327536 -0.14584529 1.105 2053824
0.017271144 -0.14392626 1.105 2053824
0.019190168 -0.14392626 1.105 2053824
0.022068704 -0.14296673 1.105 4610719
0.049894441 -0.1420072 1.105 15187286
0.052772962 -0.1420072 1.105 2053824
0.055651478 -0.1420072 1.105 2053824
0.058530014 -0.14296673 1.105 2053824
0.06140855 -0.14392626 1.105 2053824
0.063327536 -0.14296673 1.105 8292250
0.023028215 -0.14008822 1.105 14059133
0.024947202 -0.1391287 1.105 8154782
0.04413737 -0.13816918 1.105 16704633
0.047015905 -0.13816918 1.105 2053824
0.049894441 -0.1391287 1.105 15648342
0.05245313 -0.13944855 1.105 2053824
0.055651478 -0.14008822 1.105 15450216
0.057570502 -0.14008822 1.105 15450993
0.026866227 -0.13625018 1.105 2053824
0.028785251 -0.13625018 1.105 16446826
0.031663787 -0.13625018 1.105 2053824
0.038380336 -0.13625018 1.105 2053824
0.043177877 -0.13625018 1.105 9284006
0.047015905 -0.13625018 1.105 2053824
0.034542289 -0.13433115 1.105 16709728
0.037420824 -0.13337167 1.105 2053824
0.04029936 -0.13337165 1.105 15984181
0.042858046 -0.13369149 1.105 6784151
0.046056394 -0.13433115 1.105 2053824
0.042218383 -0.13049312 1.105 2053824
0.042218383 -0.12857413 1.105 2053824
0.013481759 -0.18104056 1.1090001 7421767
0.016370676 -0.18104056 1.1090001 7483682
0.019259633 -0.18104056 1.1090001 7677248
0.021185605 -0.18104056 1.1090001 7873326
0.058741886 -0.18104056 1.1090001 10046543
0.0077038463 -0.17911461 1.1090001 11052952
0.010592801 -0.17911461 1.1090001 2053824
0.013481759 -0.17815161 1.1090001 7943509
0.016370676 -0.17815161 1.1090001 2053824
0.019259633 -0.17815161 1.1090001 2053824
0.021827593 -0.17847261 1.1090001 2053824
0.025037508 -0.17911461 1.1090001 2053824
0.05970487 -0.17815161 1.1090001 6443658
0.061630845 -0.17718862 1.1090001 12086366
0.064519763 -0.17718862 1.1090001 13612184
0.013481759 -0.17526269 1.1090001 8140376
0.016370676 -0.17526269 1.1090001 8600122
0.019259633 -0.17526269 1.1090001 9058364
0.021185605 -0.17526269 1.1090001 2053824
0.061630845 -0.17526269 1.1090001 2053824
0.063556775 -0.17526269 1.1090001 2053824
0.0057778759 -0.17333671 1.1090001 2053824
0.0077038463 -0.17333671 1.1090001 12565691
0.010913797 -0.17269473 1.1090001 2053824
0.013481759 -0.17333671 1.1090001 8204870
0.021185605 -0.17333671 1.1090001 9517361
0.061630845 -0.17333671 1.1090001 11810632
0.063556775 -0.17333671 1.1090001 11886696
0.0019259708 -0.16659583 1.1090001 16383459
0.0048149088 -0.16659583 1.1090001 2053824
0.0077038463 -0.16659583 1.1090001 2053824
0.0096298167 -0.16659583 1.1090001 2053824
0.065482743 -0.16659583 1.1090001 2053824
0.067408718 -0.16659583 1.1090001 7762838
0.00096298539 -0.16370687 1.1090001 8825292
0.0048149088 -0.16370687 1.1090001 2053824
0.0077038463 -0.16370687 1.1090001 8864260
0.0096298167 -0.16370687 1.1090001 8402215
0.067408718 -0.16370687 1.1090001 12410988
0.00096298539 -0.16178094 1.1090001 8429767
0.005135898 -0.16113895 1.1090001 2053824
0.0077038463 -0.16178094 1.1090001 2053824
0.0096298167 -0.16081795 1.1090001 2053824
0.065482743 -0.15985495 1.1090001 2053824
0.067408718 -0.16081795 1.1090001 12015441
0.0096298167 -0.15696602 1.1090001 5524347
0.065482743 -0.15696602 1.1090001 2053824
0.0096298167 -0.1540771 1.1090001 2053824
0.065482743 -0.1540771 1.1090001 12476767
0.0096298167 -0.15118814 1.1090001 2053824
0.065482743 -0.15118814 1.1090001 2053824
0.010592801 -0.14829917 1.1090001 5919098
0.013481759 -0.14829917 1.1090001 2053824
0.015407693 -0.14829917 1.1090001 2053824
0.010913797 -0.14508925 1.1090001 2053824
0.013481759 -0.14541024 1.1090001 10372388
0.016049683 -0.14573126 1.1090001 4803979
0.011555787 -0.14252126 1.1090001 10703394
0.013481759 -0.14252126 1.1090001 10768420
0.016370676 -0.14252126 1.1090001 11555110
0.019259633 -0.14252126 1.1090001 12345126
0.061630845 -0.14252126 1.1090001 14595167
0.013481759 -0.14059533 1.1090001 11227433
0.016370676 -0.13963234 1.1090001 2053824
0.019259633 -0.13963234 1.1090001 13402174
0.021827597 -0.13931134 1.1090001 5990047
0.05392696 -0.13866934 1.1090001 2053824
0.058741886 -0.13963234 1.1090001 2053824
0.016370676 -0.13674341 1.1090001 7301253
0.019259633 -0.13674341 1.1090001 14063161
0.022148591 -0.13674341 1.1090001 8553868
0.025037508 -0.13674341 1.1090001 2053824
0.016370676 -0.13481742 1.1090001 2053824
0.02696348 -0.13481742 1.1090001 2053824
0.028889451 -0.13385445 1.1090001 9346177
0.031778406 -0.13481742 1.1090001 2053824
0.044297144 -0.13289149 1.1090001 2053824
0.046223111 -0.13289149 1.1090001 2053824
0.048149083 -0.13481742 1.1090001 2053824
0.065718934 -0.18169354 1.113 12564117
0.0057987152 -0.17879419 1.113 12496040
0.0077316333 -0.17782772 1.113 11710637
0.010631009 -0.17782772 1.113 2053824
0.061853137 -0.17976066 1.113 11633268
0.064752474 -0.17976066 1.113 7637423
0.0077316333 -0.17589484 1.113 12105410
0.010631009 -0.17589484 1.113 5528987
0.069584765 -0.16816315 1.113 2053824
0.069584765 -0.16623028 1.113 14400665
0.069584765 -0.1633309 1.113 2053824
0.0009664587 -0.16043152 1.113 2053824
0.0038658348 -0.16043152 1.113 2053824
0.0077316333 -0.16043152 1.113 2053824
0.069584765 -0.16043152 1.113 2053824
0.0009664587 -0.15849863 1.113 2053824
0.005154422 -0.15785432 1.1130002 4938673
0.0077316333 -0.15753216 1.113 5394806
0.0057987152 -0.15463282 1.113 8733537
0.0077316333 -0.15463282 1.113 2053824
0.0057987152 -0.15173344 1.113 2053824
0.0077316333 -0.15173344 1.113 5590910
0.0057987152 -0.14883406 1.113 8663894
0.0077316333 -0.14883406 1.113 9259073
0.065718934 -0.14883406 1.113 2053824
0.0077316333 -0.14593473 1.113 5721989
0.0096645504 -0.14690119 1.113 2053824
0.065718934 -0.14593473 1.113 2053824
0.0077316333 -0.14303532 1.113 2053824
0.010308856 -0.14174673 1.1130002 4937101
0.010631009 -0.1391695 1.113 6641779
0.013530385 -0.1391695 1.113 11755315
0.059920218 -0.1391695 1.113 2053824
0.0096645504 -0.13627017 1.113 2053824
0.013530385 -0.13627017 1.113 7169665
0.019329101 -0.13530369 1.113 14262582
0.022228476 -0.13530369 1.113 2053824
0.025127817 -0.13530369 1.113 2053824
0.052188586 -0.13627017 1.113 2053824
0.016429726 -0.13337082 1.113 13273944
0.019329101 -0.13337082 1.113 2053824
0.022228476 -0.13337082 1.113 2053824
0.025127817 -0.13337082 1.113 2053824
0.027060732 -0.13337082 1.113 2053824
0.050255667 -0.13337082 1.113 2053824
0.052188586 -0.13337082 1.113 15056464
0.013530385 -0.13143787 1.113 2053824
0.016429726 -0.13143787 1.113 2053824
0.062019859 -0.18218328 1.1160001 11180144
0.063957945 -0.18218328 1.1160001 12167043
0.0038762549 -0.15698771 1.1160001 2053824
0.067834198 -0.15795678 1.1160001 6968457
0.069772325 -0.15795678 1.1160001 13332310
0.0038762549 -0.15408054 1.1160001 6048679
0.067834198 -0.15504962 1.1160001 12018013
0.00096906372 -0.1511734 1.1160001 6519734
0.0038762549 -0.1511734 1.1160001 2053824
0.067834198 -0.1511734 1.1160001 12146533
-0.0038762549 -0.14729716 1.1160001 15854308
-0.0019380905 -0.1482662 1.1160001 16120035
0.00096906372 -0.1482662 1.1160001 6519215
0.0045222854 -0.14794318 1.1160001 4606115
0.067834198 -0.1482662 1.1160001 12349554
-0.0038762549 -0.14535899 1.1160001 15788770
-0.0019380905 -0.14535899 1.1160001 16055266
0.00096906372 -0.14535899 1.1160001 12238260
0.0048452998 -0.14535899 1.1160001 8986166
0.067834198 -0.14535899 1.1160001 2053824
0.00096906372 -0.14342086 1.1160001 2053824
0.0038762549 -0.14342086 1.1160001 2053824
0.007752473 -0.14148277 1.1160001 8918790
0.062019859 -0.14148277 1.1160001 2053824
0.065250039 -0.14212881 1.1160001 2053824
0.067834198 -0.14245182 1.1160001 7830455
0.0058143451 -0.13954462 1.1160001 6425173
0.007752473 -0.13954462 1.1160001 8519939
0.056205474 -0.13954462 1.1160001 16240471
0.062019859 -0.13954462 1.1160001 16116624
0.064927012 -0.13954462 1.1160001 8620956
0.0058143451 -0.13663745 1.1160001 5980539
0.007752473 -0.13663745 1.1160001 10032641
0.011628727 -0.13663745 1.1160001 2053824
0.050391126 -0.13663745 1.1160001 8883860
0.055236414 -0.13663745 1.1160001 5404321
0.058143605 -0.13663745 1.1160001 8818829
0.061373815 -0.13696049 1.1160001 2053824
0.010659663 -0.13373029 1.1160001 11753763
0.013566855 -0.13373029 1.1160001 13072970
0.048453003 -0.13373029 1.1160001 2053824
0.05523641 -0.13373029 1.1160001 2053824
0.058143605 -0.13373029 1.1160001 2053824
0.060081728 -0.13373029 1.1160001 2053824
0.044576745 -0.13082311 1.1160001 2053824
0.046514876 -0.13082311 1.1160001 7634290
0.048453003 -0.13082311 1.1160001 2053824
0.00097253709 -0.15463281 1.12 6651835
0.0019450742 -0.14198987 1.12 11977655
0.00518684 -0.14263824 1.1200001 2053824
0.060297076 -0.13615465 1.12 2053824
0.021395741 -0.13226452 1.12 2053824
0.028203463 -0.13226452 1.12 8359282
0.031121075 -0.13420962 1.12 2053824
0.03403867 -0.13420962 1.12 8755059
0.050571743 -0.13226452 1.12 2053824
0.052516818 -0.13226452 1.12 14598231
0.050571743 -0.13031948 1.12 2053824
0.052516818 -0.13031948 1.12 14603615
-0.0039005685 -0.1599227 1.123 16051434
-0.001950247 -0.1599227 1.123 16248041
-0.0039005685 -0.15797241 1.123 15986158
-0.001950247 -0.15797241 1.123 16252137
0.00097514212 -0.15797241 1.123 7112125
0.019502766 -0.1326188 1.123 14328120
0.023403335 -0.1326188 1.123 15186493
0.031204434 -0.1326188 1.123 14664229
0.055582874 -0.1326188 1.123 2053824
0.058508303 -0.1326188 1.123 15846763
0.055582874 -0.13066855 1.123 2053824
0.025443889 -0.13309118 1.1270001 2053824
0.034372978 -0.13356355 1.131 8161130
0.037319224 -0.13356355 1.131 2053824
0.040265489 -0.13356355 1.131 13803298
0.019641699 -0.1315994 1.131 14130748
0.021605877 -0.1315994 1.131 2053824
0.025534196 -0.1315994 1.131 2053824
0.031426728 -0.1315994 1.131 2053824
0.034372978 -0.1315994 1.131 7767904
0.037319224 -0.1315994 1.131 2053824
0.040265489 -0.1315994 1.131 13216042
0.023715936 -0.13241389 1.138 2053824
