# .PCD v0.7 - Point Cloud Data file format
VERSION 0.7
FIELDS x y z rgba
SIZE 4 4 4 4
TYPE F F F U
COUNT 1 1 1 1
WIDTH 610
HEIGHT 1
VIEWPOINT 0 0 0 1 0 0 0
POINTS 610
DATA ascii
0.18090424 -0.18679412 0.96900004 11356732
0.17838 -0.18342848 0.96900004 11486275
0.18062377 -0.18398944 0.96900004 6527894
0.18426989 -0.18342848 0.96900004 4245702
0.17838 -0.18174566 0.96900004 4245702
0.18090424 -0.18090424 0.96900004 7635325
0.18455037 -0.18062377 0.96900004 6462867
0.18174563 -0.17838001 0.96900004 10562362
0.18426989 -0.17838001 0.96900004 10367029
0.18174563 -0.17585573 0.96900004 7436930
0.18426989 -0.17585573 0.96900004 5677728
0.18090424 -0.1733315 0.96900004 7436932
0.18342848 -0.1733315 0.96900004 4245702
0.18268344 -0.1970613 0.97400004 7971986
0.18437494 -0.1970613 0.97400004 11625804
0.18671948 -0.19685899 0.97300005 9535583
0.19000262 -0.19675824 0.97250003 7640445
0.19283251 -0.1970613 0.97400004 7573882
0.17930043 -0.19283253 0.97400004 12214606
0.18268344 -0.19367827 0.97400004 8032388
0.18468523 -0.1931324 0.97266674 6661016
0.18706565 -0.19382821 0.97333336 8944222
0.190198 -0.19357929 0.97350001 5941661
0.19339636 -0.19396019 0.9740001 8944487
0.17084286 -0.18944952 0.97400004 4245702
0.17253438 -0.19029525 0.97400004 4245702
0.17591739 -0.19029525 0.97400004 12415050
0.17845467 -0.19029525 0.97400004 6138789
0.18146431 -0.1899045 0.97200006 9792869
0.1848404 -0.1899045 0.97200006 7834498
0.18737245 -0.18990451 0.97200006 11225631
0.190198 -0.19019714 0.97350001 9529660
0.19339636 -0.19001333 0.9740001 4245702
0.1699971 -0.18606649 0.97400004 4245702
0.17253438 -0.18691224 0.97400004 13933390
0.17535356 -0.18719415 0.9740001 12678971
0.17805003 -0.18706565 0.97333336 9271911
0.18484038 -0.18737243 0.97200006 11225915
0.18737245 -0.18737243 0.97200006 11166753
0.19044749 -0.18706565 0.97333336 11098645
0.19283251 -0.18775797 0.97400004 11427358
0.17084286 -0.18437494 0.97400004 4245702
0.17253438 -0.18437494 0.97400004 13933878
0.17489102 -0.18418565 0.97300005 12874779
0.17808823 -0.1848404 0.97200006 7900033
0.18230832 -0.18568443 0.97200006 11159354
0.18484038 -0.18568443 0.97200006 4245702
0.18737245 -0.1848404 0.97200006 11031595
0.18988368 -0.18481144 0.97333336 6398357
0.19283251 -0.18437494 0.97400004 10505015
0.17084286 -0.18268347 0.97400004 4245702
0.17253438 -0.18268347 0.97400004 4245702
0.17523316 -0.18199459 0.97333336 9537108
0.17792845 -0.18130684 0.97266674 9006928
0.18399636 -0.18230835 0.97200006 4245702
0.18737245 -0.18146431 0.97200006 4245702
0.19010074 -0.181651 0.97300005 8874841
0.19339636 -0.18155578 0.9740001 5935765
0.17845467 -0.17845467 0.97400004 9330514
0.1806203 -0.17808825 0.97200006 7501178
0.18737245 -0.17808825 0.97200006 10104119
0.19029525 -0.17845468 0.97400004 8476250
0.19339636 -0.17817275 0.9740001 7628128
0.17591739 -0.17422588 0.97400004 11681345
0.17805003 -0.17523313 0.97333336 8940136
0.1806203 -0.17555614 0.97200006 10891833
0.18737245 -0.17555614 0.97200006 9775922
0.19029525 -0.17507163 0.97400004 8081491
0.19367827 -0.17507163 0.97400004 5546397
0.17911634 -0.17320123 0.97300005 11354167
0.18183769 -0.17253435 0.97400004 7435911
0.18524794 -0.17286085 0.97266674 4245702
0.18756521 -0.17320123 0.97300005 9774898
0.19029525 -0.17253435 0.97400004 9185073
0.1787366 -0.16971517 0.9740001 9333613
0.18183771 -0.1699971 0.97400004 9462376
0.18418565 -0.16982169 0.97300005 7305350
0.18691224 -0.1699971 0.97400004 8605794
0.18944952 -0.1699971 0.97400004 4245702
0.17507163 -0.16661407 0.97400004 4245702
0.17845467 -0.16661407 0.97400004 10710370
0.18211961 -0.16689599 0.9740001 9467497
0.18437494 -0.16661407 0.97400004 10896976
0.18691224 -0.16745983 0.97400004 10366039
0.17306581 -0.19851661 0.97700006 12294732
0.17561086 -0.19851661 0.97700006 12226895
0.17985268 -0.19851661 0.97700006 11891789
0.18154941 -0.19851661 0.97700006 11895126
0.19597156 -0.19851661 0.97700006 10705205
0.19851664 -0.19851661 0.97700006 10508090
0.16967234 -0.19512318 0.97700006 14003002
0.17250024 -0.19568877 0.97700012 4245702
0.17561084 -0.19597155 0.97700006 4245702
0.17928711 -0.19568877 0.97700012 4245702
0.18154941 -0.19597155 0.97700006 8231557
0.19625436 -0.19625434 0.97700012 8881006
0.19851664 -0.19597155 0.97700006 10903370
0.16967234 -0.19342647 0.97700006 14332247
0.17221744 -0.19342647 0.97700006 13930840
0.17561086 -0.19342647 0.97700006 12611666
0.17815596 -0.19342647 0.97700006 12414799
0.18154941 -0.19342647 0.97700006 4245702
0.19597156 -0.19342647 0.97700006 4245702
0.19851664 -0.19342647 0.97700006 11297338
0.1679756 -0.19088137 0.97700006 4245702
0.16967234 -0.19172972 0.97700006 14528629
0.17136908 -0.19172972 0.97700006 4245702
0.17476249 -0.19088137 0.97700006 4245702
0.19625436 -0.19116417 0.97700012 6793103
0.19851664 -0.19088137 0.97700006 4245702
0.16684447 -0.18720517 0.97700012 4245702
0.17136908 -0.18833628 0.97700006 4245702
0.17476249 -0.18663958 0.97700006 4245702
0.19342646 -0.18663958 0.97700006 4245702
0.19597155 -0.18748793 0.97700006 7770232
0.19908223 -0.18720517 0.97700012 6462869
0.16458218 -0.1840945 0.97700006 9154964
0.16712725 -0.1840945 0.97700006 9220497
0.16967234 -0.1840945 0.97700006 9352333
0.19597155 -0.1840945 0.97700006 8542048
0.19908223 -0.18381172 0.97700012 6266266
0.16712725 -0.1815494 0.97700006 9021336
0.16967234 -0.1815494 0.97700006 4245702
0.17221744 -0.1815494 0.97700006 13534045
0.17476249 -0.1815494 0.97700006 4245702
0.19681993 -0.1815494 0.97700006 4245702
0.19936499 -0.1815494 0.97700006 10238271
0.20191008 -0.1815494 0.97700006 10568761
0.16967234 -0.17985269 0.97700006 13334604
0.17221743 -0.17900434 0.97700006 8361345
0.17561084 -0.17900434 0.97700006 7899267
0.19625436 -0.17928712 0.97700012 7627110
0.19936499 -0.17900434 0.97700006 5743779
0.16967234 -0.1747625 0.97700006 12801596
0.17221743 -0.17561086 0.97700006 8227713
0.17532806 -0.17589365 0.97700012 9268078
0.19681993 -0.17561086 0.97700006 9644336
0.19908223 -0.17589365 0.97700012 6133142
0.20191008 -0.17645921 0.97700006 10503226
0.17306581 -0.17136908 0.97700006 4245702
0.17561084 -0.17221741 0.97700006 8029316
0.17815596 -0.17221741 0.97700006 8094852
0.19172972 -0.17136908 0.97700006 9381428
0.19342646 -0.17221741 0.97700006 6781045
0.19568877 -0.17250019 0.97700012 6067857
0.19851664 -0.17306575 0.97700006 4245702
0.17221744 -0.16967233 0.97700006 8423809
0.17561086 -0.16967233 0.97700006 12338245
0.19172972 -0.16967233 0.97700006 4245702
0.19342646 -0.16967233 0.97700006 9842483
0.1951232 -0.16967233 0.97700006 9973548
0.17221743 -0.16712725 0.97700006 8754555
0.18154941 -0.16627888 0.97700006 4245702
0.18748793 -0.16627888 0.97700006 7305867
0.19088137 -0.16712725 0.97700006 5677220
0.19342646 -0.16712725 0.97700006 10039100
0.1951232 -0.16712725 0.97700006 4245702
0.17306581 -0.16458218 0.97700006 13455437
0.17561084 -0.16373381 0.97700006 11103086
0.17900431 -0.16373381 0.97700006 6465449
0.18154941 -0.16373381 0.97700006 13718355
0.18409449 -0.16373381 0.97700006 10250354
0.18748793 -0.16373381 0.97700006 8027530
0.19116417 -0.1640166 0.97700012 8544112
0.17589365 -0.16005759 0.97700012 10253177
0.17900431 -0.16034037 0.97700006 8817039
0.18154941 -0.16034037 0.97700006 13455699
0.18494286 -0.16034037 0.97700006 8358282
0.17900431 -0.1577953 0.97700006 13320539
0.18154941 -0.1577953 0.97700006 13124688
0.18409449 -0.1577953 0.97700006 8421769
0.17870301 -0.19912618 0.98000002 11893071
0.20082812 -0.19912618 0.98000002 10177854
0.16934237 -0.1965733 0.98000002 8959879
0.17189527 -0.19742428 0.98000002 4245702
0.17870301 -0.19742428 0.98000002 4245702
0.20082812 -0.1965733 0.98000002 7440260
0.20253007 -0.19572233 0.98000002 4245702
0.16622216 -0.19288579 0.98000002 10925184
0.16849141 -0.19402041 0.98000002 14265947
0.20082812 -0.19316943 0.98000002 4245702
0.20253007 -0.19316943 0.98000002 10704701
0.16338561 -0.19061656 0.98000002 14396493
0.1659385 -0.19061656 0.98000002 14329430
0.17019334 -0.19061656 0.98000002 14725217
0.20082812 -0.19061656 0.98000002 11100982
0.20253007 -0.19061656 0.98000002 10901303
0.20423201 -0.19061656 0.98000002 10571833
0.21274167 -0.19061656 0.98000002 11363422
0.16338561 -0.18806365 0.98000002 9222287
0.16508755 -0.18806365 0.98000002 9155985
0.16934237 -0.1889146 0.98000002 14659151
0.20082812 -0.1889146 0.98000002 4245702
0.20253007 -0.18806365 0.98000002 10701878
0.20479932 -0.18778001 0.98000002 6332051
0.21274167 -0.18806365 0.98000002 7505795
0.16338561 -0.18465978 0.98000002 13999202
0.20082812 -0.18551074 0.98000002 4245702
0.20253007 -0.18465978 0.98000002 10635065
0.20508298 -0.18465978 0.98000002 8939352
0.21274167 -0.18465978 0.98000002 7507834
0.16338561 -0.18125591 0.98000002 13866592
0.16565485 -0.18097226 0.98000002 7452325
0.16849141 -0.18040496 0.98000002 4245702
0.20253007 -0.18040496 0.98000002 4245702
0.20508298 -0.18125591 0.98000002 9005145
0.20848686 -0.18125591 0.98000002 5810083
0.21274167 -0.18125591 0.98000002 4245702
0.16622216 -0.17813569 0.98000002 13597798
0.16934238 -0.17785203 0.98000002 8622205
0.20253007 -0.17870301 0.98000002 10506302
0.20508298 -0.17785202 0.98000002 9136989
0.20763589 -0.17785203 0.98000002 4245702
0.21217436 -0.17756836 0.98000002 6529165
0.16678946 -0.17529914 0.98000002 13329492
0.16849141 -0.17529914 0.98000002 13195336
0.20082812 -0.17529914 0.98000002 10171713
0.20253007 -0.17529914 0.98000002 4245702
0.20508298 -0.17529914 0.98000002 10635562
0.16678946 -0.17359719 0.98000002 13194576
0.16934237 -0.17274623 0.98000002 8555652
0.17246258 -0.17302988 0.98000002 6855579
0.19742428 -0.17189527 0.98000002 4245702
0.20026082 -0.17246258 0.98000002 4245702
0.20253007 -0.17274623 0.98000002 4245702
0.20423201 -0.17274623 0.98000002 7438966
0.16962604 -0.16962603 0.98000002 13191768
0.19742428 -0.16934237 0.98000002 7174774
0.19997717 -0.16934237 0.98000002 7240827
0.20253007 -0.16934237 0.98000002 10761524
0.20423201 -0.16934237 0.98000002 4245702
0.17019334 -0.16678946 0.98000002 4245702
0.17189527 -0.16508755 0.98000002 13456450
0.19402039 -0.16508755 0.98000002 10561603
0.19685698 -0.16565485 0.98000002 8479341
0.19997717 -0.1659385 0.98000002 7437952
0.20253007 -0.1659385 0.98000002 11023680
0.17274624 -0.1633856 0.98000002 8817290
0.19061656 -0.1633856 0.98000002 4245702
0.19402039 -0.1633856 0.98000002 11018813
0.19657332 -0.1633856 0.98000002 7635587
0.19997716 -0.1633856 0.98000002 7701635
0.17274624 -0.1608327 0.98000002 4245702
0.17529912 -0.16168369 0.98000002 13323599
0.18380879 -0.1608327 0.98000002 8621451
0.18806364 -0.1608327 0.98000002 10313323
0.19061656 -0.1608327 0.98000002 8027782
0.19316941 -0.1608327 0.98000002 9590879
0.19657332 -0.1608327 0.98000002 9460832
0.19912621 -0.16168369 0.98000002 4245702
0.17529912 -0.15742885 0.98000002 13453660
0.17756838 -0.15714519 0.98000002 7249315
0.18125591 -0.15657787 0.98000002 8553621
0.18465976 -0.15657787 0.98000002 8422036
0.18806365 -0.15742885 0.98000002 6333609
0.19061656 -0.15742885 0.98000002 12465497
0.19316941 -0.15742885 0.98000002 8093321
0.19628966 -0.1577125 0.98000002 6724249
0.18125592 -0.15402497 0.98000002 9608349
0.18465976 -0.15402497 0.98000002 11369360
0.18806364 -0.15402497 0.98000002 6465192
0.19061656 -0.15402497 0.98000002 12794705
0.19288576 -0.15430865 0.98000002 4245702
0.18551074 -0.15147205 0.98000002 13323082
0.18721268 -0.15147205 0.98000002 13123659
0.18551074 -0.14977014 0.98000002 4245702
0.18721268 -0.14977014 0.98000002 4245702
0.19061656 -0.14977014 0.98000002 4245702
0.1690072 -0.19802864 0.98300004 14002245
0.20315005 -0.19802864 0.98300004 10700355
0.16644648 -0.19632147 0.98300004 4245702
0.2048572 -0.19632147 0.98300004 4245702
0.16388577 -0.19290718 0.98300004 4245702
0.16559292 -0.19461437 0.98300004 4245702
0.20571077 -0.19376077 0.98300004 5679014
0.16217862 -0.1894929 0.98300004 4245702
0.20656435 -0.19034648 0.98300004 10308144
0.20940958 -0.19006196 0.98300004 4245702
0.21168578 -0.1894929 0.98300004 10498852
0.21510008 -0.1894929 0.98300004 13606029
0.16047147 -0.18607862 0.98300004 14066260
0.16217862 -0.18607862 0.98300004 14066268
0.20912504 -0.18693221 0.98300004 5745054
0.21168578 -0.18693221 0.98300004 7372405
0.21510008 -0.18693221 0.98300004 8559738
0.21680722 -0.18693221 0.98300004 15189649
0.16047147 -0.1843715 0.98300004 4245702
0.16217862 -0.1843715 0.98300004 4245702
0.20912506 -0.1843715 0.98300004 7439736
0.21168578 -0.1843715 0.98300004 4245702
0.21510008 -0.1843715 0.98300004 4245702
0.16217862 -0.1818108 0.98300004 9089420
0.21168578 -0.1818108 0.98300004 10761499
0.21510008 -0.1818108 0.98300004 8425601
0.21680722 -0.1818108 0.98300004 14199166
0.16047147 -0.17925006 0.98300004 13998166
0.16331673 -0.178681 0.98300004 13865061
0.16559292 -0.17754288 0.98300004 4245702
0.20997861 -0.17839646 0.98300004 7111024
0.21168578 -0.17925006 0.98300004 10562820
0.21510008 -0.17839646 0.98300004 4245702
0.16388577 -0.17498219 0.98300004 4245702
0.16559292 -0.17498219 0.98300004 8887432
0.20656435 -0.17412861 0.98300004 4245702
0.20884053 -0.17526673 0.98300004 8282979
0.21168578 -0.17583577 0.98300004 10300220
0.21339293 -0.17498219 0.98300004 4245702
0.16388577 -0.17242149 0.98300004 13524315
0.16644648 -0.17242149 0.98300004 8686985
0.20656435 -0.17242149 0.98300004 10829615
0.20912506 -0.17242149 0.98300004 10698806
0.21339293 -0.17242149 0.98300004 10037784
0.16388577 -0.17071432 0.98300004 13391181
0.16644648 -0.17071432 0.98300004 8751754
0.1690072 -0.16900721 0.98300004 4245702
0.20656435 -0.16986077 0.98300004 7700603
0.20884053 -0.17014527 0.98300004 6528145
0.21396199 -0.17014527 0.98300004 6065800
0.16957626 -0.16616195 0.98300004 10450541
0.20542626 -0.166731 0.98300004 6526873
0.1701453 -0.16331673 0.98300004 13452605
0.20258102 -0.16274768 0.98300004 6592410
0.20542626 -0.16274768 0.98300004 4245702
0.17071433 -0.16047147 0.98300004 13583686
0.19973579 -0.16047147 0.98300004 4245702
0.20229648 -0.16047147 0.98300004 11552330
0.2048572 -0.16047147 0.98300004 12010572
0.17242149 -0.15791076 0.98300004 8948364
0.17412864 -0.15791076 0.98300004 8882318
0.19888222 -0.15791076 0.98300004 8030089
0.20229648 -0.15876435 0.98300004 7963790
0.17868102 -0.15478103 0.98300004 14111846
0.19461435 -0.15364291 0.98300004 4245702
0.19632149 -0.15535007 0.98300004 12598346
0.19802864 -0.15535007 0.98300004 4245702
0.18209533 -0.15136671 0.98300004 14183010
0.18437147 -0.15108219 0.98300004 9082504
0.19006197 -0.15136671 0.98300004 4245702
0.19290718 -0.15108219 0.98300004 8353418
0.16764042 -0.19843154 0.98500007 13806402
0.20612931 -0.19843154 0.98500007 9520451
0.16421922 -0.1950103 0.98500007 4245702
0.20698462 -0.19672091 0.98500007 9520703
0.20869525 -0.1950103 0.98500007 9454654
0.21126115 -0.1950103 0.98500007 8096904
0.16079797 -0.19329968 0.98500007 14463820
0.16250858 -0.19329968 0.98500007 4245702
0.20869525 -0.19329968 0.98500007 4245702
0.21126115 -0.19329968 0.98500007 7701630
0.16022776 -0.19101888 0.98500007 7651747
0.16250858 -0.19158909 0.98500007 4245702
0.20869525 -0.19158909 0.98500007 9979703
0.21211646 -0.19158909 0.98500007 10498605
0.16079797 -0.18816786 0.98500007 4245702
0.16250858 -0.18816786 0.98500007 4245702
0.15994266 -0.1838913 0.98500007 13932626
0.21724834 -0.18474662 0.98500007 14398848
0.16079797 -0.18132541 0.98500007 4245702
0.16079797 -0.17790413 0.98500007 4245702
0.16250858 -0.17790413 0.98500007 4245702
0.21724834 -0.17875944 0.98500007 9023135
0.16079797 -0.17533821 0.98500007 9152906
0.16250858 -0.17533821 0.98500007 4245702
0.21126115 -0.17448288 0.98500007 7240573
0.21553771 -0.17533821 0.98500007 8088420
0.21724834 -0.17533821 0.98500007 4245702
0.16250858 -0.17191698 0.98500007 8951692
0.21211646 -0.17191698 0.98500007 10370344
0.21553771 -0.1727723 0.98500007 4245702
0.21724834 -0.17191698 0.98500007 13143904
0.21126115 -0.16935107 0.98500007 10896667
0.21553771 -0.16935107 0.98500007 12068356
0.21724834 -0.16935107 0.98500007 14462824
0.16764042 -0.16678512 0.98500007 8817795
0.20698462 -0.16592984 0.98500007 4245702
0.20869525 -0.16678512 0.98500007 7899769
0.21040584 -0.16764042 0.98500007 4245702
0.2146824 -0.16678514 0.98500007 6403260
0.21724834 -0.16764042 0.98500007 15783323
0.16764042 -0.1633639 0.98500007 13322057
0.16935106 -0.16250859 0.98500007 4245702
0.20698462 -0.1642192 0.98500007 11619132
0.20869525 -0.1633639 0.98500007 11618871
0.2146824 -0.1633639 0.98500007 5676717
0.16764042 -0.16079797 0.98500007 4245702
0.16935106 -0.16079797 0.98500007 13387081
0.17106166 -0.15908737 0.98500007 13582160
0.20641443 -0.15965758 0.98500007 4245702
0.20869525 -0.15994267 0.98500007 7966594
0.21211646 -0.16079797 0.98500007 11669292
0.21382709 -0.16079797 0.98500007 12353412
0.16935106 -0.15737674 0.98500007 4245702
0.17106166 -0.15737674 0.98500007 4245702
0.20014217 -0.15737674 0.98500007 12141644
0.17533821 -0.15566614 0.98500007 13583715
0.17790414 -0.1539555 0.98500007 4245702
0.19672093 -0.1539555 0.98500007 4245702
0.17961475 -0.15224487 0.98500007 14381431
0.19501029 -0.15224487 0.98500007 4245702
0.20933087 -0.1990359 0.98800004 9113408
0.15785608 -0.19560426 0.98800004 13015911
0.16042979 -0.19560426 0.98800004 14201687
0.16386145 -0.19646215 0.98800004 8961688
0.20933087 -0.19732006 0.98800004 9255477
0.21190459 -0.19732006 0.98800004 7838098
0.15785608 -0.19388841 0.98800004 13541471
0.15957187 -0.19388841 0.98800004 4245702
0.15957187 -0.19045675 0.98800004 4245702
0.1544244 -0.18788303 0.98800004 13871964
0.15785608 -0.18702511 0.98800004 4245702
0.15957187 -0.18788303 0.98800004 9155985
0.1544244 -0.18530931 0.98800004 4245702
0.15785608 -0.18530931 0.98800004 4245702
0.15957187 -0.18359345 0.98800004 13866836
0.15957187 -0.18101972 0.98800004 9154704
0.2196258 -0.18016182 0.98800004 15263418
0.15957187 -0.17844597 0.98800004 14390097
0.2196258 -0.17844597 0.98800004 15133122
0.15957187 -0.17587224 0.98800004 4245702
0.2196258 -0.17587224 0.98800004 14936262
0.16042979 -0.17244057 0.98800004 9019016
0.16128771 -0.16986686 0.98800004 13589333
0.16386145 -0.16900894 0.98800004 6532004
0.16815101 -0.16986686 0.98800004 13389391
0.2127625 -0.16815101 0.98800004 10631711
0.16386145 -0.1664352 0.98800004 8818306
0.1664352 -0.1664352 0.98800004 4245702
0.21190459 -0.1664352 0.98800004 11222568
0.21790999 -0.1664352 0.98800004 16251855
0.16386145 -0.16386145 0.98800004 11101537
0.1664352 -0.16386145 0.98800004 8816515
0.21190459 -0.16386145 0.98800004 7569256
0.16471937 -0.16128771 0.98800004 13319232
0.1664352 -0.16042981 0.98800004 8684678
0.16900893 -0.1595719 0.98800004 8815496
0.21161863 -0.16014384 0.98800009 6525333
0.1664352 -0.15699816 0.98800004 8814474
0.16872296 -0.1567122 0.98800009 10380156
0.17244059 -0.15614025 0.98800004 13581156
0.20075174 -0.15614025 0.98800004 4245702
0.20246755 -0.15699816 0.98800004 8094602
0.20475531 -0.15728413 0.98800009 9333877
0.20847297 -0.15785606 0.98800004 8096126
0.16815101 -0.1544244 0.98800004 4245702
0.17329851 -0.1544244 0.98800004 4245702
0.17587224 -0.1544244 0.98800004 4245702
0.17329851 -0.15270855 0.98800004 13983838
0.17587224 -0.15270855 0.98800004 4245702
0.17844598 -0.15270855 0.98800004 14112120
0.19732007 -0.15270855 0.98800004 4245702
0.16091692 -0.1979192 0.99100006 11439710
0.16349848 -0.1979192 0.99100006 13416545
0.15718804 -0.1933298 0.99100006 7519397
0.14886969 -0.18931405 0.99100006 10281953
0.15145123 -0.19017455 0.99100006 9554883
0.15317227 -0.19017455 0.99100006 9025950
0.15776172 -0.18988773 0.99100006 4245702
0.14886969 -0.187593 0.99100006 9489082
0.15145123 -0.187593 0.99100006 14334815
0.15317227 -0.187593 0.99100006 4245702
0.15661435 -0.187593 0.99100006 4245702
0.15489331 -0.18415092 0.99100006 13933657
0.15718804 -0.18472461 0.99100006 7452579
0.14628813 -0.18070886 0.99100006 15790812
0.14886969 -0.18070886 0.99100006 13602979
0.15145123 -0.18070886 0.99100006 13405022
0.15431964 -0.18128255 0.99100006 7452066
0.15747488 -0.18156938 0.99100006 4245702
0.15489331 -0.1789878 0.99100006 13997658
0.15747488 -0.17812729 0.99100006 9153417
0.1583354 -0.17554572 0.99100006 4245702
0.1583354 -0.17382471 0.99100006 13857100
0.16063009 -0.16923527 0.99100006 7382176
0.16694057 -0.16952211 0.99100006 8818308
0.16177744 -0.16608004 0.99100006 8883845
0.16177744 -0.16349849 0.99100006 4245702
0.16349848 -0.16177744 0.99100006 13451340
0.16521953 -0.16005644 0.99100006 13320261
0.16521953 -0.15747488 0.99100006 13383246
0.2065244 -0.15661436 0.99100006 11483969
0.20910597 -0.15661436 0.99100006 4245702
0.21168751 -0.15833539 0.99100006 4245702
0.1663669 -0.15431963 0.99100006 7312800
0.16980895 -0.15374595 0.99100006 10645116
0.17210367 -0.15403278 0.99100006 4245702
0.19964027 -0.15489331 0.99100006 12533833
0.20222181 -0.15403278 0.99100006 10049903
0.20480336 -0.15403278 0.99100006 7962498
0.17382471 -0.15145124 0.99100006 4245702
0.17554575 -0.15145124 0.99100006 14182754
0.17726676 -0.15145124 0.99100006 4245702
0.17554575 -0.14973018 0.99100006 12929115
0.1553622 -0.19333965 0.99400002 4245702
0.1553622 -0.19161338 0.99400002 4245702
0.15708846 -0.19161338 0.99400002 4245702
0.15190969 -0.18643467 0.99400002 13860676
0.15363595 -0.18643467 0.99400002 4245702
0.15190969 -0.1847084 0.99400002 4245702
0.15363595 -0.1847084 0.99400002 4245702
0.15363595 -0.18298218 0.99400002 4245702
0.15421137 -0.17837882 0.99400008 7451296
0.1553622 -0.17607714 0.99400002 13792855
0.15708846 -0.17521404 0.99400002 9019530
0.1588147 -0.17262466 0.99400002 13721680
0.1588147 -0.17089844 0.99400002 13655892
0.1588147 -0.16744594 0.99400002 13455190
0.16054094 -0.16658281 0.99400002 8883849
0.16054094 -0.16399346 0.99400002 13454423
0.16226719 -0.16226719 0.99400002 13451352
0.16399343 -0.16054097 0.99400002 4245702
0.16399343 -0.15795158 0.99400002 8814727
0.16399343 -0.1553622 0.99400002 4245702
0.16571969 -0.15363593 0.99400002 4245702
0.20024462 -0.15363593 0.99400002 12468810
0.20714961 -0.1553622 0.99400002 11020073
0.16744594 -0.15104659 0.99400002 8879760
0.17003527 -0.15104659 0.99400002 11562106
0.17262468 -0.15190972 0.99400002 14313328
0.17435093 -0.15018345 0.99400002 4245702
0.1778034 -0.15018345 0.99400002 4245702
0.17521405 -0.14845721 0.99400002 11877964
0.14803955 -0.18699734 0.99700004 9690586
0.15063675 -0.18699734 0.99700004 4245702
0.14803955 -0.18440016 0.99700004 6800583
0.15121388 -0.18411158 0.9970001 10265732
0.14890528 -0.18007149 0.99700004 14258336
0.15150246 -0.18007149 0.99700004 8825481
0.14890528 -0.17834005 0.99700004 13990022
0.15150246 -0.17834005 0.99700004 8824448
0.15236817 -0.17660856 0.99700004 13466443
0.15496537 -0.17574283 0.99700004 13726549
0.15756257 -0.17314565 0.99700004 13723473
0.14717382 -0.16968274 0.99700004 4245702
0.15756257 -0.16968274 0.99700004 4245702
0.15929402 -0.16968274 0.99700004 13590357
0.14803955 -0.16795132 0.99700004 8887478
0.15756257 -0.16708559 0.99700004 4245702
0.15929402 -0.16621985 0.99700004 4245702
0.15756257 -0.1644884 0.99700004 13251650
0.16015974 -0.16362266 0.99700004 8750473
0.16102546 -0.15929401 0.99700004 13121353
0.16275692 -0.16015975 0.99700004 8749706
0.16275692 -0.15756258 0.99700004 13251132
0.16362265 -0.15496537 0.99700004 4245702
0.16621986 -0.15150246 0.99700004 4245702
0.17314567 -0.15063672 0.99700004 13526156
0.16795132 -0.14803955 0.99700004 4245702
0.16968274 -0.14803955 0.99700004 12794204
0.15109003 -0.17714 1 4245702
0.14935334 -0.17540334 1 4245702
0.15195835 -0.17540334 1 8821648
0.15456334 -0.17540334 1 4245702
0.14935334 -0.17279834 1 8950704
0.15195835 -0.17279834 1 4245702
0.15456334 -0.17279834 1 8952714
0.1568789 -0.1725089 1 4245702
0.14935334 -0.17019331 1 13459872
0.15195835 -0.16932499 1 6401969
0.15456334 -0.16932499 1 8951946
0.15630001 -0.16932499 1 8885643
0.148485 -0.16671999 1 14661070
0.15195835 -0.16671999 1 12139876
0.15456334 -0.16671999 1 13123142
0.15630001 -0.16671999 1 4245702
0.148485 -0.16411501 1 9222352
0.15195835 -0.16411501 1 6331816
0.15456334 -0.16411501 1 13124161
0.1568789 -0.16382557 1 4245702
0.15977335 -0.16324666 1 4245702
0.148485 -0.16064169 1 10016988
0.15195835 -0.16064169 1 8760763
0.15456334 -0.16064167 1 12926547
0.15716834 -0.16064169 1 8749441
0.16035223 -0.16093114 1 7248285
0.148485 -0.15803669 1 16120317
0.15195835 -0.15803669 1 9490383
0.15456334 -0.15716836 1 12665991
0.15716834 -0.15716836 1 11037284
0.16035223 -0.1574578 1 7248542
0.15716834 -0.15456332 1 13258118
0.16324666 -0.15456332 1 4245702
0.16498335 -0.15195832 1 4245702
0.16411501 -0.148485 1 8551576
0.16672 -0.148485 1 8288380
0.1725089 -0.14877445 1 7055016
0.17540334 -0.14761665 1 4245702
0.17714003 -0.14761665 1 4245702
0.17019331 -0.14588001 1 11470208
0.17714003 -0.14588001 1 9766200
0.16199452 -0.1567689 1.003 4245702
0.15763985 -0.15328515 1.003 8621728
0.1611236 -0.15415607 1.003 8750224
0.16373642 -0.15328515 1.003 13384795
0.15763985 -0.15154324 1.003 4245702
0.16373642 -0.15154324 1.003 4245702
0.17418768 -0.1480595 1.003 11474767
0.16634923 -0.14631765 1.003 11746207
0.16896206 -0.14631765 1.003 11604361
0.17244579 -0.14631765 1.003 11338597
0.17505862 -0.14631765 1.003 6645123
0.1589849 -0.15024945 1.006 14595004
0.16073199 -0.15112299 1.006 4245702
0.16247906 -0.15112299 1.006 12795477
0.16073199 -0.14850235 1.006 4245702
0.16247906 -0.14850235 1.006 4245702
0.17330544 -0.14529647 1.008 11338102
0.17505601 -0.14529647 1.008 4245702
0.17733279 -0.1457289 1.011 4245702
0.17382123 -0.14397316 1.011 11376565
0.175577 -0.14397316 1.011 11239579
