# .PCD v0.7 - Point Cloud Data file format
VERSION 0.7
FIELDS x y z rgba
SIZE 4 4 4 4
TYPE F F F U
COUNT 1 1 1 1
WIDTH 606
HEIGHT 1
VIEWPOINT 0 0 0 1 0 0 0
POINTS 606
DATA ascii
-0.0016723846 -0.17560305 0.96300006 11171402
-0.0039022944 -0.17281568 0.96300006 10709061
-0.0016723846 -0.17309442 0.96300006 10905412
0.0011149443 -0.17281571 0.96300006 10971716
-0.0041810251 -0.17058581 0.96300006 10574914
-0.0016723846 -0.17058581 0.96300006 10771263
-0 -0.17058581 0.96300006 10771003
-0.0033552528 -0.17782775 0.96600002 11307851
-0.0041940501 -0.1753113 0.96600002 10909513
-0 -0.1753113 0.96600002 11104583
0.0033552528 -0.17447247 0.96600002 11237955
-0.0072697042 -0.17223565 0.96600002 10444099
0.0016776264 -0.17111723 0.96600002 10836545
0.0033552528 -0.17195605 0.96600002 10903372
-0.0067105056 -0.16943963 0.96600002 10243900
-0.0041940501 -0.16943963 0.96600002 10376255
-0.0016775945 -0.16943963 0.96600002 10573627
0.0008388132 -0.16943963 0.96600002 10704696
-0.0041940501 -0.1669232 0.96600002 10178610
-0.0016775945 -0.16776198 0.96600002 10441014
-0.010065694 -0.16356796 0.96600002 9913401
-0.0075493027 -0.16356795 0.96600002 10044981
-0.0041940501 -0.16356795 0.96600002 10175540
-0.0016775945 -0.16272916 0.96600002 10237752
-0.010065694 -0.16021273 0.96600002 9911860
-0.0075493027 -0.16021273 0.96600002 9976888
-0.0041940501 -0.16021273 0.96600002 10042675
-0.0016775945 -0.16021273 0.96600002 10172967
0.0067104739 -0.15937392 0.96600002 10506549
-0.0083881002 -0.15769628 0.96600002 5890040
-0.0041940501 -0.15685749 0.96600002 5890040
0.0016776264 -0.15685749 0.96600002 10638630
0.0050328472 -0.15601869 0.96600002 10703666
0.0067104739 -0.15685749 0.96600002 10637883
-0.0033552528 -0.15434104 0.96600002 10303536
0.0067104739 -0.15434104 0.96600002 11097406
-0.013462627 -0.18174566 0.96900004 9861917
-0.010938389 -0.18090424 0.96900004 10390315
-0.0084141502 -0.18006282 0.96900004 10523961
-0.013462627 -0.17838001 0.96900004 10915904
-0.010938389 -0.17838001 0.96900004 10785333
-0.0075727478 -0.17838001 0.96900004 11047240
-0.0050484776 -0.17838001 0.96900004 11177549
-0.0072922809 -0.17557526 0.96900004 10778954
-0.0050484776 -0.17669715 0.96900004 10976332
0.0016828364 -0.17669715 0.96900004 11368512
0.0042070751 -0.17585573 0.96900004 11368766
0.0075727319 -0.1750143 0.96900004 11434306
0.010096986 -0.1750143 0.96900004 11633196
-0.010096955 -0.17249008 0.96900004 10311483
-0.0084141502 -0.17164865 0.96900004 10245179
0.0050484776 -0.17249008 0.96900004 10967628
0.0072922595 -0.17277054 0.96900004 11102279
0.010096986 -0.1733315 0.96900004 11434282
-0.010938389 -0.16912442 0.96900004 9912627
-0.0078532156 -0.16884395 0.96900004 10046514
0.00084141822 -0.16828299 0.96900004 10637365
0.0039266078 -0.16940491 0.96900004 10638141
0.013462627 -0.16828299 0.96900004 11169333
0.015986882 -0.16828299 0.96900004 11234881
-0.010938389 -0.16660018 0.96900004 9913912
-0.0075727478 -0.16660018 0.96900004 9980973
-0.0016828044 -0.16660018 0.96900004 10374961
0.00084141822 -0.16660018 0.96900004 10571826
0.0033656729 -0.16660018 0.96900004 10506800
0.013462627 -0.16660018 0.96900004 11100474
0.015986882 -0.16660018 0.96900004 11233605
0.018511137 -0.16660018 0.96900004 11365700
-0.015145496 -0.16323452 0.96900004 9780022
-0.013462627 -0.16407593 0.96900004 9846845
-0.011779823 -0.16407593 0.96900004 9912891
-0.0016828044 -0.16491733 0.96900004 10372660
0.00084141822 -0.16407593 0.96900004 10503732
0.0042070751 -0.16407593 0.96900004 10309165
0.0067313137 -0.16407593 0.96900004 10440752
0.010938404 -0.16407593 0.96900004 10834719
0.013462627 -0.16407593 0.96900004 11033146
0.015986882 -0.16407593 0.96900004 11166017
-0.013462627 -0.16071028 0.96900004 9712952
-0.011779823 -0.16071028 0.96900004 9910838
0.00084141822 -0.16071028 0.96900004 10503201
0.0042070751 -0.16071026 0.96900004 10440748
0.0075727319 -0.16071028 0.96900004 10571827
0.010938404 -0.16071028 0.96900004 10768174
0.013462627 -0.16071028 0.96900004 10965311
0.015986882 -0.16071028 0.96900004 11228989
-0.013462627 -0.15650322 0.96900004 5890040
-0.010938389 -0.15734461 0.96900004 7899796
-0.0072922809 -0.15706415 0.96900004 7186358
-0.0016828044 -0.15734461 0.96900004 10239789
-0 -0.15734461 0.96900004 8098700
0.0039266078 -0.15762508 0.96900004 8880752
0.0084141502 -0.15734461 0.96900004 10768700
0.010938405 -0.15734461 0.96900004 10899008
0.013462627 -0.15734461 0.96900004 11030089
0.015986882 -0.15734461 0.96900004 11227466
-0.010657912 -0.15425943 0.96900004 9710383
-0.0075727478 -0.15397896 0.96900004 8936032
-0.0044875429 -0.15369849 0.96900004 7316917
-0.0016828044 -0.15397896 0.96900004 10434861
0.00084141822 -0.15397896 0.96900004 5890040
0.0042070751 -0.15397896 0.96900004 9729375
0.0078532053 -0.15369849 0.96900004 11226683
0.011218878 -0.15425943 0.96900004 11226429
0.013462627 -0.15482037 0.96900004 11292232
0.015145464 -0.15482037 0.96900004 11357769
-0.0042070751 -0.1514547 0.96900004 5890040
-0.0016828044 -0.1514547 0.96900004 10432554
0.00084141822 -0.1514547 0.96900004 8425106
0.0042070751 -0.1514547 0.96900004 11159341
0.0067313137 -0.1514547 0.96900004 11356731
-0.0042070751 -0.14893045 0.96900004 6927299
-0.0016828044 -0.14893045 0.96900004 8160143
0.00084141822 -0.14893045 0.96900004 7124422
0.0042070751 -0.14893045 0.96900004 8556184
-0.0084402002 -0.18230835 0.97200006 10061117
0.0016880465 -0.18062028 0.97200006 10585677
0.0042201001 -0.18062028 0.97200006 10651727
0.0076039918 -0.18165189 0.97300005 10061901
0.010983558 -0.18165189 0.97300005 9996357
0.013532094 -0.18183769 0.97400004 9864512
0.015787456 -0.18155578 0.9740001 9994558
0.018606653 -0.18099192 0.97400004 10324036
-0.015223646 -0.17760891 0.97400004 11377744
-0.013504308 -0.17724422 0.97200006 11045959
-0.010972254 -0.17724422 0.97200006 10782788
-0.0084402002 -0.17724422 0.97200006 10911560
0.0016880465 -0.17893228 0.97200006 11567943
0.0045014359 -0.17836961 0.97200006 11633474
0.007596177 -0.17808825 0.97200006 11568707
0.01097227 -0.17808825 0.97200006 11569209
0.013504308 -0.17808825 0.97200006 11372101
0.01604506 -0.17818028 0.97250009 11240261
0.01943331 -0.17827147 0.97300005 11373361
-0.015787475 -0.17478971 0.9740001 11241285
-0.013532094 -0.17507163 0.97400004 10976338
-0.010972254 -0.17555614 0.97200006 10779973
0.011816293 -0.17555614 0.97200006 11829045
0.013504308 -0.17555614 0.97200006 11566398
0.016036376 -0.17555614 0.97200006 11304513
0.019412469 -0.17555614 0.97200006 11570980
-0.018606622 -0.17253435 0.97400004 10912316
-0.01605376 -0.1723572 0.97300005 10647623
-0.013504308 -0.17218006 0.97200006 10379343
-0.011816293 -0.17302409 0.97200006 10312774
0.0084402002 -0.17218006 0.97200006 11103031
0.01125361 -0.17274275 0.97200006 11302956
0.013504308 -0.17302409 0.97200006 11368247
0.016036376 -0.17302409 0.97200006 11368766
0.019412469 -0.17302409 0.97200006 11569190
-0.019170472 -0.17027903 0.9740001 10445381
-0.016036393 -0.16964802 0.97200006 10179399
-0.013504308 -0.16964802 0.97200006 9979716
0.005064107 -0.16880399 0.97200006 10506553
0.007596177 -0.16964802 0.97200006 10769463
0.010972269 -0.16964802 0.97200006 11035946
0.013504308 -0.17049205 0.97200006 11236145
0.016036376 -0.17049205 0.97200006 11302205
0.019412469 -0.16964802 0.97200006 11499073
0.021944508 -0.16880399 0.97200006 11763004
-0.018606622 -0.16576831 0.97400004 9847350
-0.01605376 -0.16644301 0.97300005 9848118
-0.013504308 -0.16711597 0.97200006 9913914
0.005064107 -0.16711597 0.97200006 10375987
0.0078775184 -0.16655329 0.97200006 10637873
0.01097227 -0.16711597 0.97200006 10901302
0.01969381 -0.16599059 0.97200006 11430723
0.021944508 -0.16627194 0.97200006 11565119
0.025372701 -0.16576831 0.97400004 11762756
-0.018606622 -0.16323105 0.97400004 9648941
-0.016317729 -0.16261452 0.97200006 9647915
0.0084402002 -0.16289586 0.97200006 10637602
0.019412469 -0.16289586 0.97200006 11494468
0.021944508 -0.16289586 0.97200006 11561795
-0.016329307 -0.15990996 0.97266674 9382172
0.019412469 -0.16036382 0.97200006 11492409
-0.015766636 -0.15765809 0.97266674 8151653
-0.013504308 -0.15867576 0.97200006 9710639
0.019412469 -0.15783176 0.97200006 11556927
-0.016061574 -0.15469359 0.97350001 8278359
-0.013504308 -0.15445568 0.97200006 7636365
-0.011816293 -0.15361167 0.97200006 5890040
0.010128247 -0.15361167 0.97200006 11357493
0.013504308 -0.15361167 0.97200006 11423044
0.016317718 -0.15417436 0.97200006 11488582
0.01943331 -0.15461458 0.97300005 11554371
-0.013532094 -0.15139043 0.97400004 7700610
-0.010972254 -0.15107958 0.97200006 6860999
-0.0075961929 -0.15107958 0.97200006 9001314
0.0078775184 -0.15079825 0.97200006 11420463
0.010977481 -0.15115686 0.97250009 11619622
0.013504308 -0.15107958 0.97200006 11685703
0.016061559 -0.15131229 0.97350001 11553613
0.018606653 -0.15139043 0.97400004 11419973
-0.013532094 -0.14885318 0.97400004 5890040
-0.010983542 -0.1478546 0.97300005 7898012
-0.0076040076 -0.1478546 0.97300005 9198951
0.0033830397 -0.14716165 0.97400004 5890040
0.007596177 -0.14854753 0.97200006 11485502
0.010994846 -0.14885318 0.97400004 11750965
0.013532094 -0.14885318 0.97400004 11817036
0.015223615 -0.14885318 0.97400004 11816274
-0.010149054 -0.14547016 0.97400004 10169667
-0.0076118233 -0.14547016 0.97400004 8228247
-0.0042244419 -0.1461648 0.97300005 8227737
-0.0016880144 -0.14601545 0.97200006 8292507
0.00084489159 -0.14609013 0.97250009 8490398
0.004507225 -0.14593326 0.97333336 5890040
-0.010149054 -0.14377862 0.97400004 10301246
-0.0076118233 -0.14377862 0.97400004 8227737
-0.0042270469 -0.14285907 0.97350001 8425117
-0.0016914876 -0.14293288 0.97400004 11289160
0.00084489159 -0.14278525 0.97300005 8886180
0.0042287833 -0.14293288 0.97400004 8820386
0.0042418088 -0.18324615 0.97700006 9601356
0.020360693 -0.1815494 0.97700006 10259267
-0.020360693 -0.17815596 0.97700006 10784053
-0.016967235 -0.17815596 0.97700006 11180889
-0.019512312 -0.17561086 0.97700006 11046189
-0.016967235 -0.17645921 0.97700006 11443530
-0.022057392 -0.17136908 0.97700006 10580790
-0.020360693 -0.17306575 0.97700006 10847283
0.022057392 -0.17136908 0.97700006 11831612
-0.020360693 -0.16967233 0.97700006 10247747
0.02545085 -0.16967233 0.97700006 11830340
-0.022057392 -0.16627888 0.97700006 9782589
-0.019795107 -0.16741005 0.97700012 9915453
0.023754122 -0.16712725 0.97700006 11631419
0.02545085 -0.16797562 0.97700006 11763779
0.02714758 -0.16712725 0.97700006 11829836
-0.022057392 -0.16373381 0.97700006 9452858
-0.020360693 -0.16373381 0.97700006 9518385
0.023754122 -0.16373381 0.97700006 11693888
0.02545085 -0.16373381 0.97700006 11760967
0.02714758 -0.16373381 0.97700006 11827790
-0.019512312 -0.16034037 0.97700006 8477017
0.022057392 -0.16034037 0.97700006 11624253
0.02545085 -0.16118874 0.97700006 11756105
-0.022622978 -0.15722972 0.97700012 7692656
-0.019512312 -0.15694693 0.97700006 7504009
0.022057392 -0.15694693 0.97700006 11753279
-0.019512312 -0.15440185 0.97700006 8855841
-0.018663932 -0.1527051 0.97700006 8987937
-0.016118886 -0.15185674 0.97700006 7570058
0.020360693 -0.15185672 0.97700006 11287868
-0.016118886 -0.14931166 0.97700006 7636877
-0.013573774 -0.14761493 0.97700006 5890040
0.0076352526 -0.14761493 0.97700006 11684174
0.011028712 -0.14761493 0.97700006 12078666
0.013573774 -0.14761493 0.97700006 12079184
0.016118869 -0.14846329 0.97700006 11815768
0.018663963 -0.14931166 0.97700006 11551056
-0.013573774 -0.14591822 0.97700006 5890040
-0.011877077 -0.14506984 0.97700006 5890040
0.0076352526 -0.14506985 0.97700006 10383993
0.010745923 -0.14535265 0.97700012 12341324
0.013573774 -0.14506984 0.97700006 12276045
-0.010180315 -0.14252478 0.97700006 10367290
-0.0076352684 -0.14252478 0.97700006 8226969
0.0076352526 -0.14252478 0.97700006 9017765
-0.0039590262 -0.14026247 0.97700012 7646144
-0.0016966974 -0.13997968 0.97700006 11422034
0.00056557666 -0.14026247 0.97700012 7909059
0.0045245918 -0.14026247 0.97700012 7975107
0.0067868871 -0.14082803 0.97700006 5890040
-0.0033934598 -0.13658623 0.97700006 5890040
-0.0016966974 -0.13658623 0.97700006 11617879
-0 -0.13658623 0.97700006 5890040
0.0050901575 -0.13658623 0.97700006 5890040
-0.0033934598 -0.13319279 0.97700006 8752806
-0.0016966974 -0.13319279 0.97700006 11878999
-0 -0.13319279 0.97700006 5890040
-0.019572228 -0.18125591 0.98000002 9929538
-0.01616838 -0.18125591 0.98000002 10586956
-0.013615455 -0.18210687 0.98000002 10391353
-0.022125121 -0.17870301 0.98000002 10520883
-0.018721242 -0.17870301 0.98000002 11049799
-0.022125121 -0.17529914 0.98000002 10913075
0.022125121 -0.17529914 0.98000002 11836713
0.025529001 -0.17529914 0.98000002 12028228
-0.025529001 -0.17189527 0.98000002 10116655
-0.022976108 -0.17274623 0.98000002 10580525
0.023259748 -0.17302988 0.98000002 11831351
0.025529001 -0.17274623 0.98000002 11831109
0.027230941 -0.17189527 0.98000002 11830867
-0.027230909 -0.16849142 0.98000002 9325877
-0.025529001 -0.16934237 0.98000002 9852469
-0.022976108 -0.16934237 0.98000002 10049337
0.023827059 -0.17019331 0.98000002 11764537
0.028365567 -0.16962603 0.98000002 11830602
0.030634789 -0.16849142 0.98000002 11895368
-0.027798234 -0.16565485 0.98000002 9124423
-0.025529001 -0.1659385 0.98000002 9453893
-0.023827095 -0.1659385 0.98000002 9519940
0.028932881 -0.1659385 0.98000002 11894864
0.030634789 -0.1659385 0.98000002 11567189
-0.028081894 -0.1633856 0.98000002 8925764
-0.025529001 -0.1633856 0.98000002 9057347
-0.023827095 -0.1633856 0.98000002 9189183
0.028932881 -0.1633856 0.98000002 11959887
-0.027230909 -0.1608327 0.98000002 7243933
-0.025529001 -0.1608327 0.98000002 8531003
-0.022976108 -0.1608327 0.98000002 8215651
0.023827059 -0.1608327 0.98000002 11689793
0.025529001 -0.15998173 0.98000002 11689796
0.027798256 -0.16111638 0.98000002 11824971
-0.025529001 -0.15827982 0.98000002 5890040
-0.023827095 -0.15657787 0.98000002 8394794
0.023827059 -0.15742885 0.98000002 11688258
0.025529001 -0.15742885 0.98000002 11688769
-0.022976108 -0.15402497 0.98000002 7110286
-0.020423213 -0.153174 0.98000002 5890040
0.022692433 -0.15430865 0.98000002 11356224
0.025529001 -0.15402497 0.98000002 11422022
-0.022976108 -0.15147205 0.98000002 5890040
-0.019572228 -0.15147205 0.98000002 7505035
0.022125121 -0.15147205 0.98000002 11286847
-0.025529001 -0.14977014 0.98000002 5890040
-0.022976108 -0.14977014 0.98000002 7043728
-0.01985589 -0.14920282 0.98000002 8021860
-0.01616838 -0.14806819 0.98000002 7767181
0.017019333 -0.14806819 0.98000002 11750495
0.0198559 -0.14863551 0.98000002 11484241
-0.015317426 -0.14636628 0.98000002 9776675
-0.013615455 -0.14466433 0.98000002 5890040
0.011913547 -0.14466433 0.98000002 12472909
0.016168363 -0.14551531 0.98000002 12013389
0.018721275 -0.14636628 0.98000002 11683411
-0.013615455 -0.14296241 0.98000002 10104626
-0.011062561 -0.14211144 0.98000002 10366774
-0.007658713 -0.14126046 0.98000002 5890040
0.0085096667 -0.14126046 0.98000002 12408664
0.011062576 -0.14211144 0.98000002 12342096
0.013615455 -0.14211144 0.98000002 12276054
0.015884709 -0.14239511 0.98000002 12078413
-0.010211574 -0.13955855 0.98000002 10564412
-0.007658713 -0.13955855 0.98000002 8425115
-0.005105787 -0.13955855 0.98000002 5890040
0.0017019399 -0.13955855 0.98000002 12671834
0.0034038797 -0.13955855 0.98000002 12473691
0.0076586967 -0.13955855 0.98000002 9280423
0.011062577 -0.13955855 0.98000002 12473939
0.013615455 -0.13955855 0.98000002 12340315
-0.0068077594 -0.13785659 0.98000002 5890040
-0.005105787 -0.13700563 0.98000002 8555680
0.0017019399 -0.13700563 0.98000002 12867674
0.0034038797 -0.13700563 0.98000002 5890040
0.0076586967 -0.13700563 0.98000002 11502726
-0.005105787 -0.13445273 0.98000002 11484488
0.0017019399 -0.13360178 0.98000002 12800346
0.0042548333 -0.13360178 0.98000002 5890040
-0.0034038797 -0.13104886 0.98000002 11748697
-0.0017019074 -0.13104886 0.98000002 11880026
-0 -0.13104886 0.98000002 11945307
-0.023046441 -0.18095723 0.98300004 9730362
0.022192851 -0.1818108 0.98300004 10915394
0.02560715 -0.18266435 0.98300004 11051102
-0.02560715 -0.17754288 0.98300004 10516031
-0.023046441 -0.17754288 0.98300004 10913079
0.022192851 -0.17839646 0.98300004 11768629
0.02560715 -0.17754288 0.98300004 12229193
-0.02560715 -0.17498219 0.98300004 10317877
-0.023900034 -0.17498219 0.98300004 10582333
0.0239 -0.17583577 0.98300004 11964481
0.028167875 -0.17412861 0.98300004 11832397
-0.028167859 -0.17242149 0.98300004 9193806
0.029021451 -0.17242149 0.98300004 11832896
0.031582143 -0.17242149 0.98300004 13014857
-0.03755717 -0.16986077 0.98300004 15394786
-0.034996428 -0.16986077 0.98300004 14607583
-0.031582162 -0.16986077 0.98300004 10515600
-0.028452389 -0.17014527 0.98300004 8996427
0.03186667 -0.17014527 0.98300004 12224341
-0.031297632 -0.166731 0.98300004 9387107
-0.029021451 -0.16730005 0.98300004 9058380
0.032435715 -0.16730005 0.98300004 11239247
0.034142867 -0.16730005 0.98300004 12951886
-0.031582162 -0.1630322 0.98300004 7549784
-0.029021451 -0.16217864 0.98300004 8532538
0.030728569 -0.1630322 0.98300004 11697482
-0.031582162 -0.16047147 0.98300004 6952774
-0.029021451 -0.16047147 0.98300004 8137261
0.029021451 -0.16047147 0.98300004 11956042
-0.030728569 -0.15876435 0.98300004 5890040
-0.028167859 -0.15791076 0.98300004 6651019
-0.02560715 -0.15705718 0.98300004 8198447
0.027883351 -0.1581953 0.98300004 11690051
-0.028167859 -0.15449649 0.98300004 6649224
-0.02560715 -0.15449649 0.98300004 5890040
0.0239 -0.15364291 0.98300004 11288386
0.027883351 -0.15478103 0.98300004 11356493
-0.028167859 -0.15193574 0.98300004 7081498
-0.02560715 -0.15193574 0.98300004 8002595
0.023330953 -0.15079767 0.98300004 11353157
0.02560715 -0.15108219 0.98300004 11419459
0.0273143 -0.15108219 0.98300004 11289155
-0.023046441 -0.14852147 0.98300004 7043728
-0.018778551 -0.14852147 0.98300004 9452571
0.022192851 -0.14852147 0.98300004 11352140
0.02560715 -0.14852147 0.98300004 11419209
-0.023330972 -0.14624529 0.98300004 7624812
-0.019632142 -0.14596075 0.98300004 8541779
-0.016502395 -0.14567623 0.98300004 7185841
0.019632161 -0.14596075 0.98300004 11549776
-0.015364316 -0.14254647 0.98300004 7964562
-0.013657134 -0.14169289 0.98300004 5890040
-0.011950017 -0.14169289 0.98300004 5890040
0.017071433 -0.14169289 0.98300004 11881034
0.018778585 -0.14340004 0.98300004 11683661
-0.015364316 -0.13998577 0.98300004 5890040
-0.013657134 -0.13998577 0.98300004 5890040
-0.011380956 -0.13884766 0.98300004 8873851
-0.0085357167 -0.1382786 0.98300004 10828608
0.011096442 -0.1382786 0.98300004 12605012
0.013657134 -0.1382786 0.98300004 12340061
0.015364285 -0.13998577 0.98300004 12274510
-0.010242835 -0.1365715 0.98300004 10561860
-0.0076821581 -0.1365715 0.98300004 8490650
0.011096442 -0.1365715 0.98300004 12736087
-0.0051214173 -0.13315721 0.98300004 5890040
0.0076821418 -0.13486433 0.98300004 9478835
0.010242867 -0.13486433 0.98300004 12474457
0.0017071499 -0.13145003 0.98300004 12010845
0.023948627 -0.18303598 0.98500007 10655559
0.027369874 -0.18303598 0.98500007 12035189
-0.028225169 -0.18132541 0.98500007 9076597
-0.025659252 -0.18132541 0.98500007 9074004
0.023948627 -0.18132541 0.98500007 11702347
0.025659252 -0.18132541 0.98500007 11902294
0.027369874 -0.18132541 0.98500007 12625249
-0.030791087 -0.17790413 0.98500007 11384240
-0.028225169 -0.17875946 0.98500007 9534309
-0.025659252 -0.17961475 0.98500007 9795144
-0.02394866 -0.17961475 0.98500007 10124081
0.023948627 -0.17875944 0.98500007 11900236
0.025659252 -0.17961475 0.98500007 12032846
0.028225185 -0.17790413 0.98500007 12428125
0.031361297 -0.17847435 0.98500007 14074797
-0.034212336 -0.17619352 0.98500007 14282719
-0.032501746 -0.17619352 0.98500007 13956824
-0.027940061 -0.1756233 0.98500007 9526855
0.028225185 -0.17619352 0.98500007 12096338
0.031646397 -0.17533821 0.98500007 13807737
-0.034212336 -0.1727723 0.98500007 14345445
-0.031646416 -0.1727723 0.98500007 12036007
0.034782544 -0.17163187 0.98500007 14733214
0.034212336 -0.16935107 0.98500007 13545596
-0.032501746 -0.16592984 0.98500007 8672125
0.032501709 -0.16592984 0.98500007 11370045
0.034212336 -0.16592984 0.98500007 12817184
0.032501709 -0.1633639 0.98500007 11500864
-0.032501746 -0.15908737 0.98500007 5890040
0.030791087 -0.15994267 0.98500007 11562323
-0.031646416 -0.15737674 0.98500007 6494006
0.029080497 -0.15737674 0.98500007 11623502
0.030791087 -0.15737674 0.98500007 11165271
-0.031361308 -0.15452573 0.98500007 6009290
0.029080497 -0.1539555 0.98500007 11224904
0.030791087 -0.15481082 0.98500007 10767439
-0.031646416 -0.15224487 0.98500007 7222594
-0.028225169 -0.15053427 0.98500007 5993109
0.029080497 -0.15138957 0.98500007 11223616
0.030791087 -0.15224487 0.98500007 10567229
-0.031646416 -0.14882363 0.98500007 7978201
-0.027940061 -0.14825344 0.98500007 6245232
-0.025659252 -0.14796834 0.98500007 6912649
0.023093315 -0.14796834 0.98500007 11352391
0.025659252 -0.14711304 0.98500007 11352645
0.027369874 -0.14796834 0.98500007 11221836
-0.025659252 -0.14540242 0.98500007 5890040
-0.022238003 -0.14540242 0.98500007 5890040
0.020527413 -0.14540242 0.98500007 11482707
0.022238003 -0.14540242 0.98500007 11351111
0.025659252 -0.14540242 0.98500007 11286594
-0.025659252 -0.14198118 0.98500007 7078718
-0.023093332 -0.1428365 0.98500007 7554636
-0.019672085 -0.1428365 0.98500007 8474461
-0.017106168 -0.1428365 0.98500007 7832974
0.019672101 -0.1428365 0.98500007 11485520
-0.023093332 -0.14027059 0.98500007 5890040
-0.020527413 -0.14027059 0.98500007 5890040
-0.016250871 -0.13941526 0.98500007 7830676
-0.013684921 -0.13855994 0.98500007 5890040
0.01653596 -0.13913016 0.98500007 11880514
0.01881679 -0.14027059 0.98500007 11353670
-0.013684921 -0.13684936 0.98500007 5890040
-0.011119002 -0.13599403 0.98500007 5890040
-0.0076977885 -0.13513871 0.98500007 11092542
0.01197433 -0.13513871 0.98500007 11880285
0.013684921 -0.13684936 0.98500007 12274015
0.015395544 -0.13684936 0.98500007 12076372
-0.011119002 -0.13342813 0.98500007 8357539
-0.0076977885 -0.13342813 0.98500007 8622497
0.008553084 -0.13342813 0.98500007 12736361
0.010263707 -0.13342813 0.98500007 11947618
-0.016250871 -0.13086219 0.98500007 7371676
-0.034316532 -0.18016182 0.98800004 12368578
-0.0317428 -0.18101972 0.98800004 10657688
0.028597122 -0.18073377 0.98800009 12889973
-0.034316532 -0.17844597 0.98800004 13487312
-0.032600731 -0.17844597 0.98800004 13287616
0.034316532 -0.17844597 0.98800004 15000277
-0.034316532 -0.1750143 0.98800004 15067362
-0.031456824 -0.17558627 0.98800009 12697284
-0.029169068 -0.1750143 0.98800004 8999025
0.034316532 -0.17587224 0.98800004 14998728
-0.036032334 -0.16815101 0.98800004 15858393
-0.034316532 -0.16815101 0.98800004 12898763
-0.034316532 -0.16300355 0.98800004 11118790
0.034316532 -0.16386145 0.98800004 12680503
-0.034316532 -0.16128771 0.98800004 10855361
0.032600701 -0.16042981 0.98800004 11232581
0.034316532 -0.16128771 0.98800004 12477754
-0.036032334 -0.15614025 0.98800004 5890040
-0.034316532 -0.15699816 0.98800004 8242400
-0.032600731 -0.15614025 0.98800004 6307947
0.032600701 -0.15699816 0.98800004 10567750
0.034316532 -0.15699816 0.98800004 12011574
0.032600701 -0.1544244 0.98800004 10237504
0.034316532 -0.1544244 0.98800004 12009783
-0.034316532 -0.15099277 0.98800004 5890040
-0.0317428 -0.15099277 0.98800004 7188679
0.031742785 -0.15185066 0.98800004 10235452
-0.034316532 -0.14927691 0.98800004 5890040
-0.030884868 -0.1475611 0.98800004 8802727
-0.029169068 -0.1475611 0.98800004 5964122
0.024021568 -0.1475611 0.98800004 11352640
0.029169068 -0.14841901 0.98800004 11090239
0.030884868 -0.14927691 0.98800004 10498112
-0.028025156 -0.14527331 0.98800009 6245256
-0.025737401 -0.14412944 0.98800004 5890040
0.022305734 -0.14412944 0.98800004 11352139
0.024593513 -0.14470139 0.98800009 11220545
0.028025178 -0.14527331 0.98800009 10564159
0.020589935 -0.14241362 0.98800004 11352146
0.025737401 -0.14241362 0.98800004 11089738
-0.022305734 -0.13898195 0.98800004 8130079
-0.019446025 -0.1395539 0.98800009 8084596
-0.017158266 -0.13898195 0.98800004 9443888
0.018874101 -0.13898195 0.98800004 11351871
0.025737401 -0.14069781 0.98800004 11022914
-0.022305734 -0.13726614 0.98800004 5890040
-0.020589935 -0.13726614 0.98800004 5890040
-0.015442466 -0.13640822 0.98800004 7765142
-0.012868701 -0.13555031 0.98800004 10168383
0.0137266 -0.13555031 0.98800004 11813217
0.017158266 -0.13726614 0.98800004 11747657
-0.019446025 -0.13269061 0.98800009 7557752
-0.016300365 -0.13383451 0.98800004 7831954
-0.0137266 -0.13383451 0.98800004 5890040
-0.010294934 -0.13211866 0.98800004 10761559
-0.0085791331 -0.13211866 0.98800004 11158359
-0.0137266 -0.13040285 0.98800004 9776461
0.036141779 -0.17554572 0.99100006 15723218
0.036141779 -0.17382471 0.99100006 15657924
-0.036141746 -0.16694057 0.99100006 15662547
-0.034420736 -0.16608004 0.99100006 11777725
-0.037002284 -0.16177744 0.99100006 15266021
-0.034420736 -0.16005644 0.99100006 5890040
0.034420736 -0.16005644 0.99100006 12277814
0.036141779 -0.16091694 0.99100006 13542270
-0.036141746 -0.15403278 0.99100006 5890040
-0.034420736 -0.15403278 0.99100006 8771302
0.020652454 -0.14112502 0.99100006 11285835
0.022373464 -0.14198554 0.99100006 11221325
0.024094509 -0.14198554 0.99100006 11089741
0.020652454 -0.13940397 0.99100006 11220805
0.02581555 -0.13940397 0.99100006 10235195
-0.024094541 -0.13682243 0.99100006 8469633
-0.022373464 -0.13596189 0.99100006 5890040
-0.019505071 -0.13653558 0.99100006 7887464
-0.017210368 -0.13682243 0.99100006 5890040
0.016349846 -0.13596189 0.99100006 11615066
0.019505093 -0.13710928 0.99100006 11152961
0.02581555 -0.13768296 0.99100006 9516624
-0.024094541 -0.13424088 0.99100006 10332884
-0.022373464 -0.13424088 0.99100006 5890040
-0.020652454 -0.13424088 0.99100006 7603266
-0.012907775 -0.13251983 0.99100006 5890040
-0.006884173 -0.13251983 0.99100006 11355224
-0.0051630973 -0.13251983 0.99100006 5890040
0.01204727 -0.13424088 0.99100006 11223901
0.018931411 -0.13424088 0.99100006 10690620
-0.03970366 -0.16658281 0.99400002 15460327
-0.037977442 -0.16658281 0.99400002 15528430
-0.0371143 -0.16399346 0.99400002 15398119
-0.0371143 -0.16054097 0.99400002 15200483
-0.0371143 -0.15881468 0.99400002 5890040
0.022441193 -0.13896286 0.99400002 11022914
0.024167446 -0.13896286 0.99400002 10431813
0.020714974 -0.13637348 0.99400002 10364724
0.022441193 -0.13637348 0.99400002 9708845
0.024167446 -0.13637348 0.99400002 10099239
0.016399341 -0.13464727 0.99400002 11351892
0.020714974 -0.13464727 0.99400002 9572902
0.022441193 -0.13464727 0.99400002 8523583
0.024167446 -0.13464727 0.99400002 9964632
-0.036360562 -0.16621985 0.99700004 15530456
0.013851641 -0.13505363 0.99700004 11418713
0.017314566 -0.13332216 0.99700004 9839182
-0.039943323 -0.17193002 1 15133411
-0.039943323 -0.17019331 1 15198181
-0.038206682 -0.17019331 1 15526632
0.015629994 -0.13372333 1 10304592
0.010451267 -0.1341245 1.003 11222123
0.013064075 -0.1341245 1.003 10567512
