# .PCD v0.7 - Point Cloud Data file format
VERSION 0.7
FIELDS x y z rgba
SIZE 4 4 4 4
TYPE F F F U
COUNT 1 1 1 1
WIDTH 622
HEIGHT 1
VIEWPOINT 0 0 0 1 0 0 0
POINTS 622
DATA ascii
0.13776281 -0.17485282 1.0170001 13597953
0.13776281 -0.17220353 1.0170001 9406577
0.13952902 -0.17132044 1.0170001 12468808
0.1381692 -0.18068278 1.0200001 9406577
0.14289294 -0.18127327 1.0200002 9406577
0.1346264 -0.17891142 1.0200001 14918254
0.13639782 -0.17891142 1.0200001 14984552
0.13905489 -0.17802571 1.0200001 12552279
0.14259771 -0.17802571 1.0200001 10775900
0.14525482 -0.17802571 1.0200001 11816262
0.14791191 -0.17714 1.0200001 10512978
0.1399406 -0.17536862 1.0200001 12872983
0.14259771 -0.17536862 1.0200001 10841423
0.14525482 -0.17536862 1.0200001 11548748
0.14791191 -0.17536862 1.0200001 11419191
0.13639782 -0.17359719 1.0200001 13787186
0.1399406 -0.17359719 1.0200001 12537135
0.14259771 -0.17271151 1.0200001 9925733
0.14525482 -0.17271149 1.0200001 11352646
0.14791191 -0.17271151 1.0200001 10571600
0.15056901 -0.17271149 1.0200001 9985113
0.13905489 -0.16916871 1.0200001 10971230
0.14259771 -0.17005439 1.0200001 9406577
0.14525482 -0.16916871 1.0200001 11223603
0.14791191 -0.16916871 1.0200001 9663074
0.15115948 -0.16946393 1.0200002 9726556
0.14791191 -0.16651161 1.0200001 10500144
0.13679899 -0.19009727 1.023 14130266
0.13857557 -0.19009727 1.023 13732985
0.12791593 -0.18654406 1.023 14988835
0.13146913 -0.18654406 1.023 9406577
0.13324575 -0.18743238 1.023 15317340
0.13591069 -0.18743238 1.023 11966049
0.13946387 -0.18743238 1.023 11304801
0.14301711 -0.18743238 1.023 9406577
0.14568204 -0.18654406 1.023 12278872
0.14745863 -0.18832068 1.023 9406577
0.13324575 -0.18476743 1.023 15842386
0.13591069 -0.18476743 1.023 15054426
0.13946387 -0.18476743 1.023 13859941
0.14301711 -0.18476743 1.023 12544078
0.14568204 -0.18476743 1.023 12145733
0.14745863 -0.18476743 1.023 12146243
0.12791593 -0.18121421 1.023 14658894
0.13058083 -0.18121421 1.023 9406577
0.13324575 -0.18210253 1.023 12295521
0.13591069 -0.18210253 1.023 10786158
0.13975999 -0.18239865 1.023 12157035
0.14212881 -0.18299083 1.023 9406577
0.14568204 -0.18210253 1.023 10642518
0.14834693 -0.18210253 1.023 9992035
0.15190017 -0.18210253 1.023 10515786
0.12080947 -0.17766099 1.023 9406577
0.12702763 -0.1785493 1.023 13279321
0.13058083 -0.1785493 1.023 12031067
0.13324575 -0.1785493 1.023 14720595
0.13591069 -0.17766099 1.023 12095319
0.14834693 -0.17943762 1.023 10644055
0.15190017 -0.1785493 1.023 9927011
0.15456508 -0.1785493 1.023 9406577
0.15634167 -0.17766099 1.023 10895179
0.12791593 -0.17588441 1.023 14589270
0.13058083 -0.17499608 1.023 11898217
0.13324575 -0.17499608 1.023 14187080
0.13561459 -0.17529219 1.023 12618295
0.15219627 -0.17529219 1.023 10510918
0.15456508 -0.17499608 1.023 10054486
0.15634167 -0.17499608 1.023 10437955
0.13146913 -0.17233118 1.023 14119510
0.13324575 -0.17233118 1.023 14050902
0.13591069 -0.17233118 1.023 13329492
0.15278848 -0.17233118 1.023 10434614
0.15456508 -0.17233118 1.023 10240054
0.15634167 -0.17233118 1.023 10109495
0.13087693 -0.16996238 1.023 9406577
0.13324575 -0.16966626 1.023 14049349
0.13591069 -0.16966628 1.023 10972508
0.14301711 -0.16877797 1.023 9406577
0.15278848 -0.16877797 1.023 10169114
0.15456508 -0.16966626 1.023 9974063
0.15634167 -0.17055456 1.023 9406577
0.13146913 -0.16700134 1.023 14114123
0.13679899 -0.16611305 1.023 13128271
0.13946387 -0.16611305 1.023 12081750
0.14301711 -0.16611305 1.023 10709340
0.14568204 -0.16611305 1.023 11554350
0.14834693 -0.16522476 1.023 10051663
0.15190016 -0.16611305 1.023 9596256
0.15456508 -0.16611305 1.023 9788752
0.13679899 -0.16344813 1.023 14308695
0.13946387 -0.16344813 1.023 13520203
0.14301711 -0.16344813 1.023 11299426
0.14568204 -0.16344813 1.023 12603200
0.14834693 -0.16344813 1.023 9406577
0.13591069 -0.16167153 1.023 11960422
0.13946387 -0.16167153 1.023 9406577
0.14301711 -0.16167153 1.023 11430756
0.12829106 -0.19332749 1.026 13810528
0.13096377 -0.19332749 1.026 11312228
0.1336365 -0.19243659 1.026 14856540
0.13630924 -0.19332749 1.026 12427359
0.13987286 -0.19332749 1.026 10915425
0.1425456 -0.19332749 1.026 12749892
0.14521834 -0.19332749 1.026 11504473
0.14878196 -0.19332749 1.026 11828562
0.1514547 -0.19243659 1.026 12153919
0.1247274 -0.19065475 1.026 15321449
0.12740014 -0.19065475 1.026 15056732
0.13096377 -0.19065475 1.026 14924412
0.1336365 -0.19065475 1.026 14987106
0.13541833 -0.19065475 1.026 9406577
0.14076377 -0.19065475 1.026 13336410
0.1425456 -0.19065475 1.026 13073211
0.14521834 -0.19065475 1.026 11108443
0.14878196 -0.19065475 1.026 10843231
0.1514547 -0.19065475 1.026 9406577
0.15323654 -0.19065475 1.026 11955250
0.12294558 -0.1870911 1.026 9406577
0.1247274 -0.18798202 1.026 12297312
0.12710318 -0.188279 1.026 9406577
0.13066679 -0.188279 1.026 9406577
0.14610925 -0.18887295 1.026 12411732
0.14907894 -0.18768506 1.026 10189154
0.1514547 -0.18798202 1.026 10447706
0.15323654 -0.18798202 1.026 10579033
0.12294558 -0.18530926 1.026 9406577
0.1247274 -0.18441837 1.026 14858579
0.12740014 -0.18441838 1.026 13478477
0.13096377 -0.18441837 1.026 12230237
0.14967288 -0.18530926 1.026 9406577
0.1514547 -0.18530926 1.026 9406577
0.15442443 -0.18471533 1.026 11038272
0.12294558 -0.18174563 1.026 14790993
0.1247274 -0.18174563 1.026 14594384
0.12650923 -0.18174563 1.026 9406577
0.15501836 -0.18174563 1.026 9406577
0.11938196 -0.17996383 1.026 14656346
0.12235164 -0.1793699 1.026 9406577
0.1247274 -0.17907292 1.026 14592596
0.15769106 -0.17907292 1.026 10448224
0.12235164 -0.17580625 1.026 9406577
0.1247274 -0.17550927 1.026 12031854
0.12710318 -0.17521231 1.026 12883800
0.15858197 -0.17550927 1.026 9726045
0.16036381 -0.17461835 1.026 9406577
0.12294558 -0.17194563 1.026 12226396
0.1247274 -0.17194563 1.026 12161373
0.12740014 -0.17194563 1.026 13209660
0.13007285 -0.17283656 1.026 14253368
0.15858197 -0.17283656 1.026 9406577
0.16036381 -0.17283656 1.026 9406577
0.12294558 -0.16927293 1.026 14977368
0.1247274 -0.16927293 1.026 14712919
0.12740014 -0.16927293 1.026 11828062
0.13007285 -0.16927293 1.026 9406577
0.15680015 -0.16927293 1.026 10107712
0.12740014 -0.16660018 1.026 10583911
0.13066679 -0.16630322 1.026 10976100
0.1336365 -0.16660018 1.026 14178896
0.13541833 -0.16660018 1.026 11432286
0.15680015 -0.16749108 1.026 9406577
0.1247274 -0.16214566 1.026 14574656
0.12740014 -0.16303656 1.026 11892067
0.13096377 -0.16303656 1.026 11891299
0.1336365 -0.16303656 1.026 14375521
0.13541833 -0.16392744 1.026 14309990
0.14610925 -0.16214566 1.026 12866385
0.14878196 -0.16214566 1.026 9406577
0.1514547 -0.16303656 1.026 10170933
0.15412745 -0.16303656 1.026 9597284
0.13096377 -0.16036381 1.026 9406577
0.1336365 -0.16036381 1.026 14376027
0.13630924 -0.16036381 1.026 12088161
0.13987286 -0.16036381 1.026 11495516
0.1425456 -0.16036381 1.026 13849425
0.14521834 -0.16036381 1.026 13653318
0.14878196 -0.16036381 1.026 11679807
0.1514547 -0.16036381 1.026 10498625
0.15323654 -0.16036381 1.026 9406577
0.13630924 -0.15769106 1.026 11890271
0.13987286 -0.15769106 1.026 9406577
0.1425456 -0.15769106 1.026 13913680
0.14521834 -0.15769106 1.026 10386529
0.14878196 -0.15769106 1.026 10319206
0.1514547 -0.15769106 1.026 11812170
0.13987286 -0.15501831 1.026 14042971
0.1425456 -0.15501831 1.026 13780830
0.14521834 -0.15501831 1.026 13453899
0.14878196 -0.15501831 1.026 11231323
0.12521367 -0.19318682 1.0300001 15126359
0.12700245 -0.19318682 1.0300001 9406577
0.15472832 -0.19318682 1.0300001 11824700
0.12163612 -0.18960929 1.0300001 9406577
0.1234249 -0.19050366 1.0300001 9406577
0.15562272 -0.19050366 1.0300001 10713178
0.11984739 -0.18603171 1.0300001 14922821
0.12163612 -0.18692611 1.0300001 12164703
0.15562272 -0.18782051 1.0300001 9406577
0.15741146 -0.18603171 1.0300001 12481584
0.1234249 -0.18424298 1.0300001 9406577
0.15741146 -0.18424298 1.0300001 9406577
0.15920024 -0.18424298 1.0300001 12480589
0.11567357 -0.1812617 1.0300001 12884824
0.11865487 -0.18185794 1.0300001 11178852
0.12163612 -0.18245418 1.0300001 14791250
0.15741146 -0.18245418 1.0300001 9406577
0.16009462 -0.18066545 1.0300001 10449494
0.11567357 -0.17768417 1.0300001 12950606
0.118953 -0.17798229 1.0300001 13344084
0.160989 -0.17708792 1.0300001 9406577
0.11626983 -0.17529912 1.0300001 15245378
0.118953 -0.17529912 1.0300001 12096604
0.12163612 -0.17529912 1.0300001 9406577
0.11626983 -0.17351039 1.0300001 9406577
0.118953 -0.17261599 1.0300001 10718565
0.12163612 -0.17261599 1.0300001 12161115
0.16009462 -0.17172159 1.0300001 10052701
0.118953 -0.16903846 1.0300001 12026981
0.12163612 -0.16903846 1.0300001 12158821
0.12431929 -0.16814406 1.0300001 11958628
0.16009462 -0.16903846 1.0300001 9598820
0.12431929 -0.16635533 1.0300001 11958116
0.15741146 -0.16635533 1.0300001 10434091
0.16009462 -0.16635533 1.0300001 10117974
0.11805861 -0.16367216 1.0300001 14509136
0.12163612 -0.1627778 1.0300001 14442322
0.12402116 -0.16397029 1.0300001 11107428
0.15741146 -0.16367216 1.0300001 10050651
0.15979651 -0.16397029 1.0300001 9406577
0.12521367 -0.160989 1.0300001 14572849
0.12789683 -0.16009462 1.0300001 13330263
0.13057996 -0.15920022 1.0300001 9406577
0.13326311 -0.15920022 1.0300001 14439760
0.15502647 -0.15979648 1.0300001 9406577
0.12789683 -0.15741147 1.0300001 9406577
0.13057996 -0.15741147 1.0300001 9406577
0.13326311 -0.15741147 1.0300001 11890534
0.15472832 -0.15741147 1.0300001 10446683
0.13415751 -0.15472832 1.0300001 14572645
0.13684067 -0.15472832 1.0300001 13197671
0.13952379 -0.15383394 1.0300001 9406577
0.14220695 -0.15383394 1.0300001 11494506
0.1457845 -0.15383394 1.0300001 9406577
0.14846763 -0.15383394 1.0300001 12924996
0.15115079 -0.15472832 1.0300001 9406577
0.15383394 -0.15562269 1.0300001 9406577
0.13594627 -0.15204516 1.0300001 14705514
0.14250508 -0.15144892 1.0300001 10843502
0.1457845 -0.15204516 1.0300001 11231065
0.1219904 -0.1937495 1.033 14137909
0.12378439 -0.1937495 1.033 15320134
0.15786994 -0.1937495 1.033 11496291
0.16056091 -0.1937495 1.033 11232081
0.16325189 -0.1937495 1.033 11100523
0.12109342 -0.19105852 1.033 12361312
0.15786994 -0.19105852 1.033 11955290
0.15966392 -0.19195549 1.033 9406577
0.11660849 -0.18657355 1.033 9406577
0.11840247 -0.18747056 1.033 9406577
0.12019645 -0.18836756 1.033 9406577
0.15786994 -0.18836756 1.033 12284466
0.15966392 -0.18747056 1.033 9406577
0.11660849 -0.18477961 1.033 14788687
0.11840247 -0.18477961 1.033 14789940
0.12109342 -0.18477961 1.033 12098904
0.16145791 -0.18477961 1.033 12020588
0.11302052 -0.18119165 1.033 9406577
0.1148145 -0.1829856 1.033 9406577
0.16056091 -0.1829856 1.033 9406577
0.10943259 -0.17760371 1.033 14192225
0.11212355 -0.17850068 1.033 13277273
0.1148145 -0.17939766 1.033 14657336
0.16145791 -0.17939766 1.033 9406577
0.16325189 -0.17760371 1.033 9406577
0.10943259 -0.1758097 1.033 14257241
0.11212355 -0.17491272 1.033 13274202
0.1148145 -0.17491272 1.033 12162137
0.16325189 -0.1758097 1.033 11689037
0.11302052 -0.17222175 1.033 9406577
0.1157115 -0.17222175 1.033 14648151
0.11302052 -0.1704278 1.033 9406577
0.11601049 -0.16982982 1.033 9406577
0.11660849 -0.16594285 1.033 11960416
0.11840247 -0.16683985 1.033 14644819
0.12109342 -0.16594285 1.033 13333602
0.16325189 -0.16683985 1.033 11223877
0.11660849 -0.16325191 1.033 14506065
0.12019645 -0.16325191 1.033 14376529
0.16145791 -0.16325191 1.033 9406577
0.11660849 -0.16145791 1.033 9406577
0.11840247 -0.16145791 1.033 14243664
0.12019645 -0.16056091 1.033 9406577
0.12438238 -0.16026191 1.033 11106135
0.15786994 -0.16056091 1.033 10183007
0.15966392 -0.16056091 1.033 9406577
0.12468138 -0.15697294 1.033 11955031
0.12737235 -0.15607595 1.033 9406577
0.13006331 -0.15607595 1.033 11955813
0.13275427 -0.15607595 1.033 14505826
0.15727195 -0.15667395 1.033 9990243
0.15966392 -0.15786995 1.033 11485513
0.12737235 -0.154282 1.033 9406577
0.13006331 -0.154282 1.033 11955815
0.13275427 -0.154282 1.033 9406577
0.15248801 -0.154282 1.033 9406577
0.13006331 -0.15248799 1.033 14635615
0.13365126 -0.15248799 1.033 14704230
0.1390332 -0.15159103 1.033 12089710
0.14172415 -0.15069406 1.033 9406577
0.14531213 -0.15069406 1.033 9406577
0.14830206 -0.15129206 1.033 11948369
0.15159103 -0.15248799 1.033 9406577
0.14351813 -0.14800307 1.033 11757949
0.14531213 -0.14890005 1.033 13118820
0.1471061 -0.14890005 1.033 13316670
0.11874633 -0.19251297 1.036 9406577
0.12054552 -0.19251297 1.036 9406577
0.16192681 -0.19251297 1.036 11360849
0.163726 -0.19251297 1.036 10966642
0.11874633 -0.19071381 1.036 9406577
0.16012761 -0.19071381 1.036 12218187
0.1097504 -0.1871154 1.036 14526822
0.11244917 -0.1871154 1.036 9406577
0.11604754 -0.18801501 1.036 11968352
0.16192681 -0.18801501 1.036 9406577
0.163726 -0.1871154 1.036 11360065
0.16552518 -0.1871154 1.036 9406577
0.1097504 -0.18441662 1.036 14458965
0.11244917 -0.18441664 1.036 12098411
0.11514794 -0.18531623 1.036 14924395
0.163726 -0.18441662 1.036 11691072
0.16552518 -0.18531623 1.036 11935007
0.1097504 -0.18171786 1.036 14327114
0.11154959 -0.18171786 1.036 9406577
0.163726 -0.18171786 1.036 11688756
0.16552518 -0.18171786 1.036 11023917
0.1079512 -0.17901906 1.036 9406577
0.1097504 -0.17991865 1.036 9406577
0.163726 -0.17991865 1.036 11557439
0.16552518 -0.17901906 1.036 9406577
0.098955266 -0.17632028 1.036 9406577
0.10075446 -0.17632028 1.036 14993629
0.10435282 -0.1754207 1.036 9406577
0.1079512 -0.1754207 1.036 11766884
0.1097504 -0.17452113 1.036 14322001
0.163726 -0.17452113 1.036 9406577
0.16552518 -0.17632028 1.036 11098694
0.10435282 -0.17272192 1.036 13197881
0.1079512 -0.17272192 1.036 14189654
0.1097504 -0.17272192 1.036 14451540
0.11154959 -0.17272192 1.036 14516819
0.163726 -0.17272192 1.036 11685195
0.10345323 -0.17092276 1.036 9406577
0.1079512 -0.17092276 1.036 9406577
0.1097504 -0.17002314 1.036 14448983
0.11214931 -0.16972327 1.036 9406577
0.11514794 -0.16912355 1.036 9406577
0.163726 -0.17002314 1.036 11223877
0.16552518 -0.16912355 1.036 10566480
0.10075446 -0.16642478 1.036 14652606
0.10345323 -0.16642478 1.036 9406577
0.1097504 -0.16642478 1.036 14642774
0.11244917 -0.16642478 1.036 12090975
0.11514794 -0.16642478 1.036 12025695
0.163726 -0.16552517 1.036 11354947
0.16552518 -0.16642478 1.036 9406577
0.1097504 -0.16372602 1.036 14575192
0.11244917 -0.16372602 1.036 14441811
0.11514794 -0.16372602 1.036 14440786
0.163726 -0.16372602 1.036 11420737
0.16732435 -0.16372602 1.036 9406577
0.1079512 -0.16192681 1.036 9406577
0.1097504 -0.16192681 1.036 14373974
0.11244917 -0.16192681 1.036 9406577
0.11604754 -0.16102719 1.036 9406577
0.11874633 -0.16012758 1.036 14438992
0.12234469 -0.16102719 1.036 14374731
0.16192681 -0.16102719 1.036 9406577
0.163726 -0.16102719 1.036 10445910
0.16552518 -0.16102719 1.036 10309452
0.11694714 -0.15742883 1.036 11954781
0.11874633 -0.15742883 1.036 11955043
0.1214451 -0.15742883 1.036 13261657
0.16132708 -0.15712897 1.036 10055780
0.163726 -0.15742883 1.036 10378064
0.16552518 -0.15832844 1.036 9406577
0.1214451 -0.15473007 1.036 14369373
0.12504347 -0.15473007 1.036 11953764
0.15473007 -0.15473007 1.036 12464965
0.15742885 -0.15473007 1.036 12139071
0.16102721 -0.15473007 1.036 11413065
0.12504347 -0.15293086 1.036 12019049
0.12774226 -0.15293086 1.036 14698591
0.1340394 -0.15113169 1.036 9406577
0.1367382 -0.15113169 1.036 14838386
0.15203127 -0.15113169 1.036 9406577
0.15473007 -0.15203127 1.036 11102040
0.15712899 -0.15233114 1.036 9406577
0.1367382 -0.14933248 1.036 15037306
0.13943698 -0.14843291 1.036 12155772
0.14213575 -0.14843291 1.036 12223870
0.14573413 -0.14753333 1.036 13118033
0.14873277 -0.14813304 1.036 10775393
0.15203127 -0.14933248 1.036 13186637
0.13943698 -0.1457341 1.036 13712449
0.14303535 -0.1457341 1.036 13449530
0.14573413 -0.1457341 1.036 12920895
0.14843291 -0.1457341 1.036 13120576
0.14573413 -0.14213575 1.036 12858690
0.14843291 -0.14303535 1.036 9406577
0.14393495 -0.14033659 1.036 9406577
0.14573413 -0.13943699 1.036 11820082
0.14753333 -0.13943699 1.036 11234123
0.10375281 -0.19307044 1.039 14011068
0.1064594 -0.19307044 1.039 13026227
0.11728579 -0.19307044 1.039 12037718
0.10014402 -0.18946165 1.039 12631729
0.10405354 -0.19006312 1.039 9406577
0.1064594 -0.19036385 1.039 11512464
0.10946673 -0.19006312 1.039 10458740
0.11307552 -0.19006312 1.039 10785896
0.11548138 -0.19036385 1.039 9406577
0.11728579 -0.19126607 1.039 9406577
0.16359864 -0.19066459 1.039 9925216
0.16660596 -0.19006312 1.039 12689272
0.10375281 -0.18765724 1.039 16117471
0.1064594 -0.18765724 1.039 14533536
0.10826381 -0.18765724 1.039 14528106
0.16780888 -0.18765724 1.039 13796471
0.16961329 -0.18765724 1.039 15265473
0.104655 -0.18495065 1.039 9406577
0.1064594 -0.18495065 1.039 11835766
0.10826381 -0.18495065 1.039 9406577
0.16720742 -0.18464991 1.039 9406577
0.104655 -0.18043967 1.039 9406577
0.1064594 -0.18134187 1.039 11703914
0.10826381 -0.18224408 1.039 9406577
0.16780888 -0.18134187 1.039 10232636
0.16961329 -0.18043967 1.039 9406577
0.10014402 -0.1786353 1.039 12432812
0.10375281 -0.1786353 1.039 9406577
0.1064594 -0.1786353 1.039 9406577
0.16780888 -0.1786353 1.039 10234925
0.16961329 -0.1786353 1.039 9406577
0.10285063 -0.17683086 1.039 9406577
0.1064594 -0.17592868 1.039 9406577
0.16720742 -0.17562795 1.039 9406577
0.1064594 -0.17231989 1.039 11633500
0.16600451 -0.17231989 1.039 10252382
0.10104623 -0.16961329 1.039 14585540
0.10375281 -0.16961329 1.039 13130093
0.1064594 -0.16961329 1.039 13986391
0.10826381 -0.16961329 1.039 9406577
0.16780888 -0.16961329 1.039 10032172
0.1064594 -0.16690671 1.039 11366745
0.10826381 -0.16690671 1.039 11762280
0.16780888 -0.16690671 1.039 9521249
0.16961329 -0.16690671 1.039 11300969
0.10104623 -0.1623957 1.039 14793940
0.10375281 -0.16329792 1.039 11168593
0.1064594 -0.16329792 1.039 11496272
0.10826381 -0.16420013 1.039 14113116
0.16690668 -0.16329792 1.039 9983060
0.16961329 -0.16329792 1.039 9406577
0.10014402 -0.16059129 1.039 12102829
0.10375281 -0.16059129 1.039 13130084
0.1064594 -0.16059129 1.039 13914694
0.1100682 -0.16059129 1.039 14440788
0.11277479 -0.16059129 1.039 14242632
0.11548138 -0.16059129 1.039 9406577
0.10014402 -0.1578847 1.039 14014424
0.10285063 -0.15878692 1.039 9406577
0.1064594 -0.15878692 1.039 13914185
0.1100682 -0.15788472 1.039 11955819
0.11307552 -0.15818545 1.039 9406577
0.11548138 -0.15788472 1.039 11954519
0.16600451 -0.1569825 1.039 12598785
0.11548138 -0.15517813 1.039 14767449
0.11848873 -0.15457666 1.039 14436958
0.12179677 -0.1533737 1.039 11887979
0.1605913 -0.1533737 1.039 9406577
0.16359864 -0.15397519 1.039 10881372
0.16600451 -0.15517813 1.039 13458003
0.12089459 -0.15156932 1.039 9406577
0.12720996 -0.15156932 1.039 9406577
0.13081877 -0.15156932 1.039 12021355
0.15878691 -0.15156932 1.039 12211267
0.1605913 -0.15156932 1.039 11281974
0.1623957 -0.15156932 1.039 11273002
0.13172096 -0.14976491 1.039 9406577
0.13352536 -0.14976491 1.039 9406577
0.13593122 -0.148562 1.039 13206126
0.15156931 -0.14796054 1.039 13449533
0.15457666 -0.148562 1.039 11950432
0.157584 -0.14916345 1.039 9406577
0.1605913 -0.14976491 1.039 10688044
0.13713416 -0.14615612 1.039 13842521
0.14525393 -0.14435175 1.039 11033433
0.15156931 -0.14525393 1.039 12989749
0.15427592 -0.14525393 1.039 9406577
0.14435174 -0.14254734 1.039 9406577
0.15156931 -0.14254734 1.039 12601154
0.15427592 -0.14254734 1.039 11752283
0.14976491 -0.13984075 1.039 8938820
0.15156931 -0.14074296 1.039 9406577
0.15337372 -0.14074296 1.039 11685173
0.11491002 -0.19362791 1.0420001 11115858
0.10133798 -0.19181834 1.0420001 15132387
0.1031476 -0.19181834 1.0420001 14736852
0.10857641 -0.19181834 1.0420001 9406577
0.11219563 -0.19181834 1.0420001 9406577
0.17010301 -0.1900087 1.0420001 15922922
0.10043318 -0.18729429 1.0420001 13026228
0.1031476 -0.18638949 1.0420001 9406577
0.17010301 -0.18638949 1.0420001 14471321
0.1031476 -0.18457986 1.0420001 9406577
0.17010301 -0.18457986 1.0420001 9406577
0.097718753 -0.18096066 1.0420001 9406577
0.10043318 -0.18096066 1.0420001 12764082
0.10375079 -0.18216708 1.0420001 11246715
0.17010301 -0.17734145 1.0420001 13265166
0.10043318 -0.17553186 1.0420001 12033697
0.1031476 -0.17553186 1.0420001 9406577
0.17010301 -0.17553186 1.0420001 9406577
0.16919822 -0.17281744 1.0420001 9406577
0.17010301 -0.17010301 1.0420001 9406577
0.17191264 -0.16919823 1.0420001 9406577
0.17191264 -0.16648382 1.0420001 9406577
0.17191264 -0.16467424 1.0420001 9406577
0.10495717 -0.1592454 1.0420001 9406577
0.10857641 -0.16015019 1.0420001 11758947
0.10405238 -0.15743577 1.0420001 13465198
0.10676679 -0.15743577 1.0420001 9406577
0.10857641 -0.15743577 1.0420001 14047067
0.11219563 -0.15743577 1.0420001 9406577
0.10043318 -0.15472136 1.0420001 9406577
0.10405238 -0.15472136 1.0420001 10855569
0.10676679 -0.15562618 1.0420001 13063520
0.11038601 -0.15562618 1.0420001 9406577
0.11219563 -0.15562618 1.0420001 9406577
0.11460842 -0.15441976 1.0420001 11303531
0.11762443 -0.15381655 1.0420001 9406577
0.11581483 -0.15200698 1.0420001 14966379
0.11852925 -0.15200698 1.0420001 12152940
0.12124366 -0.15019734 1.0420001 9406577
0.12395805 -0.15110216 1.0420001 9406577
0.12757728 -0.15019734 1.0420001 12349294
0.1302917 -0.15019734 1.0420001 9406577
0.12667246 -0.14838776 1.0420001 9406577
0.1330061 -0.14838776 1.0420001 9406577
0.14295892 -0.14476857 1.0420001 9406577
0.16968536 -0.19327798 1.0450001 15984589
0.10072233 -0.18511128 1.0450001 12960695
0.10072233 -0.17422239 1.0450001 15519962
0.10344457 -0.17422239 1.0450001 12475523
0.17240758 -0.17512982 1.0450001 15846010
0.10072233 -0.1724076 1.0450001 11964574
0.17240758 -0.1724076 1.0450001 9406577
0.17422241 -0.16968536 1.0450001 16252668
0.10888901 -0.15607424 1.0450001 9406577
0.10707418 -0.15425941 1.0450001 9406577
0.10979642 -0.15425941 1.0450001 11496250
0.11251865 -0.15425941 1.0450001 14834013
0.11070383 -0.15244462 1.0450001 9406577
0.11251865 -0.15244462 1.0450001 9406577
0.11493839 -0.15123473 1.0450001 13134192
0.1188705 -0.15062977 1.0450001 12087149
0.11614826 -0.14790756 1.0450001 12020850
0.11856803 -0.14821003 1.0450001 11237487
0.12159273 -0.14881498 1.0450001 15162727
0.12461741 -0.14821003 1.0450001 9406577
0.12794459 -0.14790756 1.0450001 12483701
0.13066682 -0.14881498 1.0450001 9406577
0.11614826 -0.14518535 1.0450001 14304846
0.17290254 -0.19292286 1.0480001 16711409
0.17290254 -0.1911028 1.0480001 16711412
0.10101148 -0.18382271 1.0480001 9406577
0.17290254 -0.18109265 1.0480001 16508561
0.17290254 -0.17836261 1.0480001 16045441
0.17654261 -0.17199253 1.0480001 16711419
0.10647155 -0.15288225 1.0480001 9406577
0.1092016 -0.15197223 1.0480001 11493743
0.11193165 -0.15106221 1.0480001 11955818
0.11223499 -0.14863554 1.0480001 10582390
0.11466167 -0.14833218 1.0480001 12348777
0.12103178 -0.14742215 1.0480001 12219757
0.1237618 -0.14742215 1.0480001 9406577
0.13013193 -0.14742215 1.0480001 9406577
0.11284167 -0.14560215 1.0480001 13521555
0.11466167 -0.14560215 1.0480001 14177648
0.11830174 -0.14560215 1.0480001 9406577
0.12103178 -0.14560215 1.0480001 14763880
0.1237618 -0.14560215 1.0480001 14829418
0.17538945 -0.1735625 1.052 16187128
0.13336904 -0.14798483 1.052 13984360
0.12697464 -0.14615789 1.052 14832228
0.17588961 -0.1777218 1.0550001 16318188
0.17588961 -0.1758896 1.0550001 16252658
0.13649766 -0.14840683 1.0550001 13910354
0.13008502 -0.14657468 1.0550001 9406577
0.13229233 -0.14699149 1.0580001 13713499
0.12898223 -0.14556566 1.0610001 9406577
0.13082485 -0.14556566 1.0610001 9406577
0.13266745 -0.14556566 1.0610001 9406577
0.12898223 -0.14372309 1.0610001 9406577
0.13082485 -0.14372309 1.0610001 11282757
0.13489036 -0.14782509 1.064 9406577
0.13673818 -0.14782509 1.064 9406577
0.138586 -0.14782509 1.064 9406577
0.13427445 -0.14474539 1.064 9406577
0.13673818 -0.14505336 1.064 10969183
0.138586 -0.14597726 1.064 12924471
0.13119476 -0.14228162 1.064 11486035
0.13396648 -0.14228162 1.064 10578018
0.13673818 -0.14228162 1.064 12598105
0.14096177 -0.14838082 1.0680001 12460611
0.14281653 -0.14838082 1.0680001 9406577
0.14467128 -0.14838082 1.0680001 12394292
0.14034352 -0.14528957 1.0680001 9406577
0.14281653 -0.14559868 1.0680001 12353119
0.14559865 -0.14652604 1.0680001 11563088
0.139107 -0.14281651 1.0680001 13070180
