# .PCD v0.7 - Point Cloud Data file format
VERSION 0.7
FIELDS x y z rgba
SIZE 4 4 4 4
TYPE F F F U
COUNT 1 1 1 1
WIDTH 554
HEIGHT 1
VIEWPOINT 0 0 0 1 0 0 0
POINTS 554
DATA ascii
-0.027482752 -0.16398039 1.0550001 11433070
-0.025650596 -0.1648965 1.0550001 11568707
-0.022902291 -0.16398039 1.0550001 11235943
-0.020153988 -0.16398039 1.0550001 11369782
-0.040308051 -0.15939994 1.0550001 10442048
-0.038475823 -0.15939994 1.0550001 11168920
-0.031147132 -0.15756777 1.0550001 10177858
-0.029314907 -0.15756777 1.0550001 11168920
-0.03175785 -0.15451413 1.0550001 11168920
-0.02839883 -0.15481949 1.0550001 10837343
-0.025650596 -0.15481949 1.0550001 10968167
-0.03175785 -0.15084977 1.0550001 10969719
-0.029314907 -0.15115513 1.0550001 10636852
-0.02381837 -0.15023905 1.0550001 11168920
-0.031147132 -0.14840683 1.0550001 10768179
-0.031147132 -0.14565858 1.0550001 11168920
-0.02839883 -0.14474249 1.0550001 11165033
-0.025650596 -0.14474249 1.0550001 11225411
-0.022967417 -0.16995889 1.0580001 11237743
-0.019598844 -0.16965267 1.0580001 10976609
-0.016536569 -0.16904019 1.0580001 11307832
-0.040422671 -0.16536541 1.0580001 11168920
-0.037666552 -0.16628411 1.0580001 11168920
-0.033991784 -0.16628411 1.0580001 11105626
-0.031235702 -0.16628411 1.0580001 11238466
-0.02878581 -0.16659036 1.0580001 11235453
-0.025723536 -0.16720283 1.0580001 11502159
-0.022967417 -0.16720283 1.0580001 11168920
-0.018986389 -0.16659036 1.0580001 11237725
-0.016536569 -0.16628411 1.0580001 11373364
-0.040422671 -0.163528 1.0580001 11168920
-0.037666552 -0.163528 1.0580001 10971251
-0.033991784 -0.163528 1.0580001 11168920
-0.031235702 -0.163528 1.0580001 10903120
-0.029398266 -0.163528 1.0580001 11168920
-0.025723536 -0.163528 1.0580001 11302711
-0.018373935 -0.163528 1.0580001 11435314
-0.016536569 -0.163528 1.0580001 11435818
-0.012861768 -0.163528 1.0580001 11702054
-0.042260036 -0.15985321 1.0580001 11168920
-0.040422671 -0.16169062 1.0580001 11168920
-0.037360325 -0.16107816 1.0580001 11168920
-0.033991784 -0.16077192 1.0580001 10771293
-0.031235702 -0.16077191 1.0580001 10572619
-0.028479584 -0.16077192 1.0580001 10969965
-0.025723536 -0.16077191 1.0580001 11035709
-0.022967417 -0.16077192 1.0580001 11168920
-0.018986389 -0.16107816 1.0580001 11301236
-0.016536569 -0.16169062 1.0580001 11435565
-0.040422671 -0.15709713 1.0580001 10705259
-0.037666552 -0.15709713 1.0580001 11168920
-0.033991784 -0.15709713 1.0580001 10970243
-0.027560901 -0.15801583 1.0580001 11168920
-0.025723536 -0.15801583 1.0580001 10902073
-0.022967417 -0.15709713 1.0580001 11102306
-0.019292615 -0.15709713 1.0580001 11234657
-0.036747869 -0.15434106 1.0580001 10242108
-0.0349105 -0.15434106 1.0580001 11168920
-0.022967417 -0.15434106 1.0580001 11168920
-0.018373935 -0.15434106 1.0580001 11298862
-0.034298025 -0.15189119 1.0580001 10374968
-0.027560901 -0.15158495 1.0580001 10902631
-0.025723536 -0.15158495 1.0580001 10832953
-0.02266119 -0.15189119 1.0580001 11033431
-0.019598845 -0.15127873 1.0580001 11297108
-0.016536569 -0.15066627 1.0580001 11492666
-0.033991784 -0.14882885 1.0580001 10572592
-0.028479584 -0.14882885 1.0580001 10833206
-0.025723536 -0.14882885 1.0580001 10964022
-0.022967417 -0.14882885 1.0580001 11095610
-0.019292615 -0.14882885 1.0580001 11490874
-0.033991784 -0.14607278 1.0580001 10970238
-0.028479584 -0.14699149 1.0580001 11034216
-0.025723536 -0.14699149 1.0580001 11094332
-0.022967417 -0.14607278 1.0580001 11168920
-0.020211298 -0.14699149 1.0580001 11168920
-0.033685546 -0.14270423 1.0580001 11034487
-0.031235702 -0.142398 1.0580001 11230312
-0.028479584 -0.142398 1.0580001 11293525
-0.025723536 -0.142398 1.0580001 11421764
-0.022967417 -0.142398 1.0580001 11295594
-0.031235702 -0.13964193 1.0580001 11223867
-0.028479584 -0.13964193 1.0580001 11360878
-0.025723536 -0.13964193 1.0580001 11168920
-0.031324271 -0.17504734 1.0610001 6049078
-0.02763905 -0.17504734 1.0610001 6115893
-0.023032542 -0.17504734 1.0610001 6450478
-0.014740813 -0.17504734 1.0610001 7566153
-0.036852069 -0.17228341 1.0610001 10056043
-0.033781063 -0.17197633 1.0610001 10514812
-0.031324271 -0.17136213 1.0610001 11168920
-0.028253242 -0.17197633 1.0610001 10712186
-0.025796475 -0.17228341 1.0610001 10324292
-0.023032542 -0.17320471 1.0610001 10192189
-0.019040227 -0.17259052 1.0610001 10516568
-0.016583459 -0.17228341 1.0610001 10519609
-0.013819525 -0.17228341 1.0610001 10975337
-0.0104414 -0.17197633 1.0610001 11173717
-0.037773356 -0.16951951 1.0610001 11168920
-0.034088172 -0.16951951 1.0610001 11303281
-0.031324271 -0.16951951 1.0610001 11634503
-0.028560337 -0.16951951 1.0610001 11369072
-0.025796475 -0.16951951 1.0610001 11503948
-0.013819525 -0.16951951 1.0610001 11239015
-0.010134305 -0.16951951 1.0610001 11304811
-0.042379864 -0.16583429 1.0610001 11168920
-0.040537287 -0.16767694 1.0610001 11108928
-0.012898237 -0.16675562 1.0610001 11168920
-0.010134305 -0.16675562 1.0610001 11302273
-0.0073704417 -0.16675562 1.0610001 11499874
-0.0055277962 -0.16767694 1.0610001 11168920
-0.014126621 -0.1627633 1.0610001 11302257
-0.010134305 -0.16307038 1.0610001 11567431
-0.0073704417 -0.16307038 1.0610001 11830564
-0.0055277962 -0.16307038 1.0610001 11500386
-0.02026861 -0.16030648 1.0610001 11434537
-0.016583459 -0.16030648 1.0610001 11368496
-0.013819525 -0.16030648 1.0610001 11368044
-0.010134305 -0.16030648 1.0610001 11633217
-0.0073704417 -0.16030648 1.0610001 11764539
-0.0055277962 -0.16030648 1.0610001 11830331
-0.043301187 -0.15754259 1.0610001 10574187
-0.016583459 -0.15754259 1.0610001 11235174
-0.013819525 -0.15754259 1.0610001 11168920
-0.0104414 -0.1578497 1.0610001 11300980
-0.0073704417 -0.15754259 1.0610001 11698226
-0.0055277962 -0.15846391 1.0610001 11168920
-0.043301187 -0.15477869 1.0610001 9912375
-0.040537287 -0.15477869 1.0610001 10044728
-0.038694642 -0.15477869 1.0610001 10176058
-0.02026861 -0.15477869 1.0610001 11364397
-0.016583459 -0.15477869 1.0610001 11233848
-0.013819525 -0.15477869 1.0610001 11496510
-0.011055592 -0.15477869 1.0610001 11627828
-0.0073704417 -0.15477869 1.0610001 11892788
-0.040537287 -0.15201479 1.0610001 10573414
-0.037773356 -0.15201478 1.0610001 11168920
-0.018426035 -0.15293607 1.0610001 11168920
-0.016583459 -0.15293607 1.0610001 11362870
-0.013819525 -0.15201479 1.0610001 11168920
-0.011055592 -0.15201479 1.0610001 11626302
-0.0073704417 -0.15201479 1.0610001 11692343
-0.040537287 -0.14925086 1.0610001 9911098
-0.037773356 -0.14832959 1.0610001 10838143
-0.018426035 -0.14740829 1.0610001 11168920
-0.016583459 -0.14832959 1.0610001 11363435
-0.014126621 -0.14863668 1.0610001 11559264
-0.011055592 -0.14925086 1.0610001 11755333
-0.036852069 -0.14556566 1.0610001 11168920
-0.019347321 -0.14556566 1.0610001 11168920
-0.016583459 -0.14556566 1.0610001 11751478
-0.035009492 -0.14188045 1.0610001 10632762
-0.019654419 -0.14310887 1.0610001 11619390
-0.016583459 -0.14280176 1.0610001 11684163
-0.013819525 -0.14372309 1.0610001 11168920
-0.034088172 -0.13911657 1.0610001 10835050
-0.031324271 -0.13819526 1.0610001 11168920
-0.028560337 -0.13819526 1.0610001 11168920
-0.025796475 -0.13819526 1.0610001 11881801
-0.023032542 -0.13911657 1.0610001 11492462
-0.019347321 -0.14003788 1.0610001 11881287
-0.016583459 -0.14003788 1.0610001 11168920
-0.033166848 -0.13635263 1.0610001 11092534
-0.031324271 -0.13635263 1.0610001 11484992
-0.028560337 -0.13635263 1.0610001 11168920
-0.025796475 -0.13635263 1.0610001 12079182
-0.010162959 -0.17554229 1.064 8223044
-0.0073912819 -0.17554229 1.064 8419638
-0.0046195337 -0.17554229 1.064 8418855
-0.040651906 -0.17184667 1.064 10127690
-0.038804051 -0.17277056 1.064 10056811
-0.035108484 -0.17369445 1.064 9009474
-0.03141284 -0.17369445 1.064 9470275
-0.029564986 -0.17369445 1.064 9602625
-0.0092390664 -0.17369445 1.064 11168920
-0.0073912819 -0.17277056 1.064 11441474
-0.0046195337 -0.17277056 1.064 11040636
-0.0018477852 -0.17184667 1.064 11244618
-0.042499691 -0.16815104 1.064 11175240
-0.040651906 -0.16999884 1.064 11168920
-0.014782493 -0.16815104 1.064 11440176
-0.0073912819 -0.16999884 1.064 12031297
-0.0043115695 -0.16938291 1.064 11565946
-0.0018477852 -0.16907494 1.064 11567217
-0 -0.16815104 1.064 11168920
-0.014782493 -0.1663032 1.064 11168920
-0.0046195337 -0.1663032 1.064 11567469
-0.0018477852 -0.1663032 1.064 11965768
-0 -0.1663032 1.064 11168920
-0.0036956409 -0.16353147 1.064 11168920
-0.0018477852 -0.16353147 1.064 11500910
0.00092391024 -0.16353147 1.064 11367300
0.0036956409 -0.16353147 1.064 11566193
-0.0036956409 -0.16075975 1.064 11764796
-0.0018477852 -0.16075975 1.064 11764800
0.00092391024 -0.16075975 1.064 11500142
0.0036956409 -0.16075975 1.064 11168920
-0.0092390664 -0.15706412 1.064 11168920
-0.0043115695 -0.15768008 1.064 11168920
-0.0018477852 -0.15798804 1.064 11168920
-0 -0.15798804 1.064 11168920
-0.048043121 -0.15336849 1.064 11168920
-0.046195332 -0.15336849 1.064 11168920
-0.043423619 -0.15336849 1.064 11168920
-0.0092390664 -0.1542924 1.064 11431782
-0.0046195337 -0.1542924 1.064 11564389
-0.0018477852 -0.1542924 1.064 11499110
-0 -0.1542924 1.064 11168920
0.0036956409 -0.15521634 1.064 11168920
-0.046195332 -0.15152071 1.064 9780532
-0.043423619 -0.15152071 1.064 10442085
-0.0092390664 -0.15152071 1.064 11168920
-0.0046195337 -0.15152071 1.064 11168920
-0.0018477852 -0.15152071 1.064 11757880
-0 -0.15152071 1.064 11168920
-0.043423623 -0.14874899 1.064 10772093
-0.040651906 -0.14782509 1.064 9908790
-0.012934708 -0.14782509 1.064 11168920
-0.0098549947 -0.14844103 1.064 11559771
-0.0073912819 -0.14874899 1.064 11689778
-0.0046195337 -0.14874899 1.064 11429737
-0.0018477852 -0.14967288 1.064 11690050
-0 -0.14967288 1.064 11168920
-0.042499691 -0.14597726 1.064 9645105
-0.040651906 -0.14505336 1.064 10505829
-0.038188126 -0.14474539 1.064 10770806
-0.013858601 -0.14597726 1.064 11427689
-0.010162959 -0.14505336 1.064 11490641
-0.0073912819 -0.14597726 1.064 11686972
-0.040651906 -0.14228162 1.064 9839410
-0.03788016 -0.14228162 1.064 11168920
-0.018478133 -0.14228162 1.064 11168920
-0.013858601 -0.14228162 1.064 11294315
-0.011086852 -0.14228162 1.064 11551027
-0.03788016 -0.13950992 1.064 11168920
-0.019402027 -0.138586 1.064 11623792
-0.01663035 -0.138586 1.064 11881805
-0.013858601 -0.13950992 1.064 11297413
-0.011086852 -0.14043385 1.064 11616065
-0.036956266 -0.13673817 1.064 11168920
-0.035108484 -0.13673817 1.064 10763577
-0.02402156 -0.13673817 1.064 11168920
-0.022173773 -0.13673817 1.064 11168920
-0.019402027 -0.13673817 1.064 11624564
-0.01663035 -0.13673817 1.064 11947600
-0.036956266 -0.13396648 1.064 10833767
-0.033876579 -0.13427445 1.064 11168920
-0.03141284 -0.13396648 1.064 11812675
-0.028641094 -0.13489039 1.064 11168920
-0.025869416 -0.13304254 1.064 12473171
-0.022173773 -0.13396648 1.064 11821177
-0.019402027 -0.13396646 1.064 11429255
-0.01663035 -0.13396648 1.064 12144470
-0.014782493 -0.13396648 1.064 11557240
-0.019402027 -0.13119476 1.064 11168920
-0.01663035 -0.13119476 1.064 12341087
-0.0018547318 -0.17434743 1.0680001 10455358
0.0009273836 -0.17434743 1.0680001 9862488
0.0046369 -0.17434743 1.0680001 11311228
-0.042659469 -0.1724927 1.0680001 10197573
0.0009273836 -0.1724927 1.0680001 10910588
0.0037095344 -0.1724927 1.0680001 11168920
-0.042659469 -0.17063792 1.0680001 11168920
0.0012365115 -0.17001969 1.0680001 11368831
0.0049460223 -0.16940145 1.0680001 11833449
-0.043586869 -0.16600101 1.0680001 11168920
0.0018547672 -0.1669284 1.0680001 11168920
0.0049460223 -0.16631013 1.0680001 11501673
0.007419033 -0.16507362 1.0680001 12484670
-0.042659469 -0.1632189 1.0680001 11168920
0.0055642659 -0.1632189 1.0680001 11168920
0.007419033 -0.1632189 1.0680001 12156226
-0.046369001 -0.16136409 1.0680001 11168920
-0.044514269 -0.16136409 1.0680001 11168920
0.0018547672 -0.15950938 1.0680001 11830085
0.0049460223 -0.16012762 1.0680001 11168920
0.007419033 -0.16043673 1.0680001 11433327
0.0092738001 -0.15950938 1.0680001 10843746
-0.046369001 -0.1576546 1.0680001 11168920
0.0018547672 -0.1576546 1.0680001 11764294
0.0046369 -0.1576546 1.0680001 11433329
0.007419033 -0.1576546 1.0680001 11238472
0.0092738001 -0.1576546 1.0680001 11168920
-0.050078537 -0.15394507 1.0680001 11168920
-0.046369001 -0.15579985 1.0680001 9783101
0.0018547672 -0.15487246 1.0680001 11367534
0.0049460223 -0.15456334 1.0680001 11167617
0.007419033 -0.15487246 1.0680001 10839632
0.0092738001 -0.15579985 1.0680001 11168920
-0.049151137 -0.15116295 1.0680001 9979210
-0.046369001 -0.15023556 1.0680001 9582898
0.0018547672 -0.15116295 1.0680001 11364719
0.0043277782 -0.15147209 1.0680001 11168920
0.007419033 -0.15023556 1.0680001 9980485
-0.048223734 -0.14838082 1.0680001 11168920
-0.046369001 -0.14838082 1.0680001 9449521
-0.0018547318 -0.14838082 1.0680001 11622716
0.0009273836 -0.14838082 1.0680001 11165293
-0.05193327 -0.14467131 1.0680001 7734286
-0.048223734 -0.14652604 1.0680001 11168920
-0.046369001 -0.14559868 1.0680001 9250861
-0.043896001 -0.14528956 1.0680001 11168920
-0.0074190688 -0.14467131 1.0680001 11618877
-0.0046369 -0.14559868 1.0680001 11232896
-0.0018547318 -0.14559868 1.0680001 11423289
0.00061825576 -0.14528957 1.0680001 11100028
0.0046369 -0.14467131 1.0680001 11168920
0.007419033 -0.14559868 1.0680001 9708585
0.0092738001 -0.14467131 1.0680001 8913229
-0.043586869 -0.14281651 1.0680001 9447465
-0.0092738001 -0.14281651 1.0680001 11617080
-0.0074190688 -0.14281651 1.0680001 11168920
-0.0046369 -0.14281651 1.0680001 11295338
-0.0018547318 -0.14281651 1.0680001 11356480
-0 -0.14281651 1.0680001 11168920
-0.042659469 -0.14003439 1.0680001 11168920
-0.040804736 -0.14003439 1.0680001 10504291
-0.0098920446 -0.13972527 1.0680001 11296127
-0.0074190688 -0.14003439 1.0680001 11294065
-0.0046369 -0.14096178 1.0680001 11168920
-0.040804736 -0.13632485 1.0680001 9971751
-0.038949933 -0.13632485 1.0680001 10635365
-0.025039267 -0.13539748 1.0680001 11689333
-0.013601578 -0.13663398 1.0680001 11361664
-0.010201166 -0.13632485 1.0680001 11358836
-0.0074190688 -0.13632485 1.0680001 11417161
-0.038949933 -0.1335427 1.0680001 11168920
-0.035240468 -0.1335427 1.0680001 11168920
-0.028748766 -0.1335427 1.0680001 11168920
-0.024111867 -0.1335427 1.0680001 11168920
-0.012983334 -0.1335427 1.0680001 11746133
-0.010201165 -0.1335427 1.0680001 11548240
-0.0074190688 -0.1335427 1.0680001 11415367
-0.0370952 -0.13076058 1.0680001 10365236
-0.034313068 -0.13076058 1.0680001 11165308
-0.031530935 -0.13076058 1.0680001 11878218
-0.029057888 -0.13106972 1.0680001 11168920
-0.025348401 -0.13106972 1.0680001 12477036
-0.022257134 -0.13076058 1.0680001 12150146
-0.019474965 -0.12983318 1.0680001 11168920
-0.016692868 -0.12983318 1.0680001 12538213
-0.0139107 -0.13076058 1.0680001 11168920
-0.010510288 -0.13106972 1.0680001 11488619
-0.0074190688 -0.13168797 1.0680001 11285061
-0.0370952 -0.12797846 1.0680001 10429743
-0.019165844 -0.12736019 1.0680001 11168920
-0.016692868 -0.12797846 1.0680001 12675179
-0.014838066 -0.12797846 1.0680001 11168920
-0.05193327 -0.12426893 1.0680001 14283990
-0.050078537 -0.12426893 1.0680001 14088155
-0.046369001 -0.12426893 1.0680001 10066091
-0.044639312 -0.17111725 1.0710001 11112008
0.0037199543 -0.17111725 1.0710001 11898457
-0.044639312 -0.1692573 1.0710001 11168920
-0.044639312 -0.16553731 1.0710001 11168920
-0.044639312 -0.16367736 1.0710001 11168920
-0.049289197 -0.16088741 1.0710001 10972535
-0.046499252 -0.15995744 1.0710001 11168920
-0.049289197 -0.15716746 1.0710001 10574963
-0.052079145 -0.15437749 1.0710001 9388343
0.0092998501 -0.15437749 1.0710001 10112086
-0.063239008 -0.15065756 1.0710001 14868953
-0.061378997 -0.15065756 1.0710001 15065569
-0.058589049 -0.15065756 1.0710001 11168920
-0.052699149 -0.15127757 1.0710001 11168920
0.0055798958 -0.15065756 1.0710001 11168920
0.0074398732 -0.15251756 1.0710001 10375500
0.0092998501 -0.15158756 1.0710001 11168920
-0.063239008 -0.14879762 1.0710001 14933719
-0.061378997 -0.14879762 1.0710001 11168920
-0.058589049 -0.14879762 1.0710001 12768466
-0.052079145 -0.14879762 1.0710001 8328989
-0.050219208 -0.14879762 1.0710001 9117992
0.004649925 -0.14879762 1.0710001 10832450
0.0074398732 -0.14879762 1.0710001 9644339
-0.053319156 -0.14631765 1.0710001 10112110
-0.0495992 -0.14569768 1.0710001 11168920
0.0018599771 -0.14693762 1.0710001 11157819
0.004649925 -0.14693762 1.0710001 11168920
0.0092998501 -0.14693762 1.0710001 11168920
-0.055799101 -0.14321768 1.0710001 9597328
-0.052699149 -0.14259771 1.0710001 11168920
-0.0492892 -0.14321768 1.0710001 8789533
-0.046499252 -0.14228772 1.0710001 9182761
-0.044639312 -0.14135775 1.0710001 11168920
-0.0018599416 -0.14135775 1.0710001 11289923
-0 -0.14135775 1.0710001 11168920
0.0037199543 -0.14321768 1.0710001 11168920
0.0074398732 -0.14321768 1.0710001 11168920
-0.052079145 -0.13949774 1.0710001 7602433
-0.046499252 -0.13949774 1.0710001 9182767
-0.044639312 -0.13949774 1.0710001 11168920
-0.004649925 -0.13949774 1.0710001 11168920
-0.0018599416 -0.13949774 1.0710001 11154503
-0 -0.13949774 1.0710001 11168920
-0.046499252 -0.13670778 1.0710001 9250090
-0.043399304 -0.13639781 1.0710001 11168920
-0.004649925 -0.13670778 1.0710001 11227500
-0.0427793 -0.13391782 1.0710001 11168920
-0.040299356 -0.13267788 1.0710001 10436683
-0.0055798958 -0.13391782 1.0710001 11284548
-0.039059345 -0.13019788 1.0710001 11168920
-0.02789955 -0.13019788 1.0710001 11168920
-0.024179596 -0.13019788 1.0710001 11168920
-0.0092998501 -0.13019788 1.0710001 11485007
-0.0074399086 -0.13019788 1.0710001 11220552
-0.052079145 -0.12647796 1.0710001 14411999
-0.050219208 -0.12647796 1.0710001 11168920
-0.039989352 -0.12647796 1.0710001 10372445
-0.0371994 -0.12647796 1.0710001 10495017
-0.034409456 -0.12740795 1.0710001 10963821
-0.031619504 -0.12740795 1.0710001 11943500
-0.028519532 -0.12771796 1.0710001 11558274
-0.025419606 -0.12771796 1.0710001 12345453
-0.022319656 -0.12833795 1.0710001 13065597
-0.020459641 -0.12647796 1.0710001 11168920
-0.016739758 -0.12647796 1.0710001 12803680
-0.013949776 -0.12740795 1.0710001 11168920
-0.011159792 -0.12833795 1.0710001 11883354
-0.048359193 -0.12461801 1.0710001 12039904
-0.044639312 -0.12461801 1.0710001 9386358
-0.0466295 -0.17159657 1.074 10848330
-0.044764347 -0.17346177 1.074 9407552
-0.0466295 -0.16973141 1.074 10850893
-0.048494656 -0.1669336 1.074 11168920
-0.0466295 -0.1669336 1.074 10779222
-0.06155093 -0.16227064 1.074 14673631
-0.058753163 -0.16320324 1.074 13879242
-0.055022825 -0.16320324 1.074 12163251
-0.052225027 -0.16320324 1.074 11235952
-0.049427267 -0.16413584 1.074 10841964
-0.0466295 -0.16413584 1.074 11168920
-0.055022828 -0.1604055 1.074 11569067
-0.052225027 -0.1604055 1.074 11168920
-0.058753163 -0.1576077 1.074 11168920
-0.055333685 -0.15729687 1.0740001 11238053
-0.052225027 -0.1576077 1.074 10444149
-0.06155093 -0.15480992 1.074 15001050
-0.058753163 -0.15480992 1.074 13094866
-0.055022828 -0.15480992 1.074 10905754
-0.06155093 -0.15294479 1.074 15000541
-0.058753163 -0.15294479 1.074 11168920
-0.055333685 -0.15232305 1.0740001 10508954
-0.058753163 -0.14734922 1.074 11168920
-0.055333685 -0.14859268 1.0740001 8993664
0.0093259001 -0.14921442 1.074 8669243
-0.057820551 -0.14175372 1.074 13359814
-0.055022828 -0.14175372 1.074 11168920
-0.049427267 -0.14175372 1.074 9847382
0.0018651872 -0.14268628 1.074 11098995
0.0049738092 -0.14237544 1.0740001 11168920
-0.057820551 -0.13895591 1.074 14673876
-0.055022828 -0.13895591 1.074 9791383
-0.052225027 -0.1380233 1.074 7864635
-0.049116399 -0.13926677 1.0740001 11168920
-0.044764347 -0.1380233 1.074 11168920
-0.0018651516 -0.1380233 1.074 11168920
0.0012434581 -0.13864504 1.0740001 10964065
0.0046629505 -0.13988851 1.074 10633266
-0.05409025 -0.13615815 1.074 9077418
-0.052225027 -0.13615815 1.074 8594806
-0.048494656 -0.13615815 1.074 8724522
-0.0018651516 -0.13615815 1.074 11024446
-0 -0.13615815 1.074 11168920
-0.048494656 -0.13429295 1.074 11168920
-0.0466295 -0.13336036 1.074 9117719
-0.044142604 -0.1330495 1.0740001 10638705
-0.0043520918 -0.13304952 1.0740001 11163771
-0.0018651516 -0.13336036 1.074 10892097
-0.0466295 -0.13056259 1.074 8720172
-0.043831736 -0.13056259 1.074 9314070
-0.041033976 -0.13056259 1.074 9905704
-0.0046629505 -0.13056259 1.074 10890315
-0.049116399 -0.1280757 1.0740001 11168920
-0.0466295 -0.12776484 1.074 8071264
-0.043831736 -0.12776484 1.074 11168920
-0.040101364 -0.12869744 1.074 10438497
-0.029842854 -0.12683223 1.074 11168920
-0.024247328 -0.12683223 1.074 11168920
-0.022382174 -0.12683223 1.074 12999530
-0.0093259001 -0.12869744 1.074 11168920
-0.0074607488 -0.12869744 1.074 11168920
-0.0055955262 -0.12869744 1.074 11168920
-0.042899124 -0.12496708 1.074 8788296
-0.040101364 -0.12496708 1.074 10035228
-0.0373036 -0.12496708 1.074 11168920
-0.034505837 -0.12496708 1.074 11021120
-0.031708077 -0.12496708 1.074 11168920
-0.029842854 -0.12496708 1.074 11879740
-0.052419536 -0.17223565 1.0780001 10327455
-0.049611352 -0.17223565 1.0780001 10061408
-0.054915741 -0.16911547 1.0780001 11168920
-0.052419536 -0.16942748 1.0780001 11640996
-0.049923383 -0.16973951 1.0780001 11168920
-0.058971986 -0.16661926 1.0780001 14608347
-0.055227757 -0.16661926 1.0780001 12427704
-0.052419536 -0.16661926 1.0780001 11701906
-0.050547436 -0.16661926 1.0780001 10786678
-0.061780166 -0.1610029 1.0780001 14803678
-0.058971986 -0.1610029 1.0780001 11168920
-0.054291707 -0.15913077 1.0780001 11168920
-0.058971986 -0.1460259 1.0780001 13031886
-0.056163803 -0.1460259 1.0780001 9525905
-0.050547436 -0.13853735 1.0780001 11168920
0.0046803169 -0.13853735 1.0780001 10768735
-0.050547436 -0.13666525 1.0780001 11168920
0.0018721338 -0.13666525 1.0780001 10696519
0.0037442676 -0.13666525 1.0780001 11168920
-0.054291707 -0.13385706 1.0780001 11168920
-0.052419536 -0.13385706 1.0780001 9790643
-0.049923383 -0.13354504 1.0780001 11168920
0.00093606691 -0.13385706 1.0780001 11168920
0.0037442676 -0.1347931 1.0780001 9450064
-0.054291707 -0.1301128 1.0780001 14607069
-0.052419536 -0.1301128 1.0780001 11112632
-0.049611352 -0.13104884 1.0780001 8008299
-0.0037442676 -0.12917675 1.0780001 11168920
-0.0018720982 -0.1301128 1.0780001 10766444
-0.013104901 -0.1273046 1.0780001 11168920
-0.010296683 -0.1273046 1.0780001 11560826
-0.0074885353 -0.1273046 1.0780001 11168920
-0.0056163659 -0.1273046 1.0780001 11168920
-0.028081901 -0.12543251 1.0780001 12076875
-0.01684917 -0.12543251 1.0780001 11168920
-0.01404095 -0.12543251 1.0780001 11359608
-0.011232732 -0.12543251 1.0780001 11156575
-0.0074885353 -0.12543251 1.0780001 10698068
-0.055381447 -0.17271498 1.0810001 11050933
-0.056320101 -0.17083767 1.0810001 12568018
-0 -0.13141355 1.0810001 10235190
-0.0037546877 -0.12765887 1.0810001 10427982
-0.0018773081 -0.12765887 1.0810001 10228806
-0.025344051 -0.12578158 1.0810001 12206426
-0.022528054 -0.12578158 1.0810001 11168920
-0.013141371 -0.12390421 1.0810001 10435159
-0.010325338 -0.1248429 1.0810001 11168920
-0.0075093755 -0.12390421 1.0810001 11168920
-0.0046933419 -0.12578158 1.0810001 11168920
-0 -0.13001557 1.085 11168920
-0.019784961 -0.126247 1.085 11168920
-0.016016416 -0.12436269 1.085 11168920
-0.0056528356 -0.12436269 1.085 11168920
-0.019839667 -0.12470656 1.0880001 10826327
-0.0094474675 -0.12470656 1.0880001 11168920
-0.013226468 -0.12281709 1.0880001 10898774
-0.011336932 -0.12281709 1.0880001 11168920
-0.018947033 -0.12315574 1.0910001 11227993
-0.016104987 -0.12315574 1.0910001 11168920
-0.0094735166 -0.12315574 1.0910001 10307923
-0.015213186 -0.12170559 1.095 11168920
-0.013311565 -0.12170559 1.095 11168920
-0.010459061 -0.12170559 1.095 11168920
-0.019068601 -0.12203903 1.098 11760180
-0.017161768 -0.12203903 1.098 11168920
