# .PCD v0.7 - Point Cloud Data file format
VERSION 0.7
FIELDS x y z rgba
SIZE 4 4 4 4
TYPE F F F U
COUNT 1 1 1 1
WIDTH 522
HEIGHT 1
VIEWPOINT 0 0 0 1 0 0 0
POINTS 522
DATA ascii
-0.12693991 -0.18134272 0.90800005 5393975
-0.1245746 -0.18134272 0.90800005 4801090
-0.12220924 -0.18134272 0.90800005 5061172
-0.11984387 -0.18134272 0.90800005 7295247
-0.13245907 -0.17818895 0.90800005 9338937
-0.1298309 -0.1787146 0.90800011 7764031
-0.12693991 -0.1789774 0.90800005 4603423
-0.1245746 -0.1789774 0.90800005 3220243
-0.12247205 -0.17924023 0.90800011 3483154
-0.12930527 -0.1758236 0.90800005 6973231
-0.1266771 -0.17608643 0.90800011 4536632
-0.1245746 -0.17661206 0.90800005 2955819
-0.13670173 -0.18016182 0.91000003 7563293
-0.13354099 -0.18016182 0.91000003 9600041
-0.13117044 -0.18016182 0.91000003 9403184
-0.12010784 -0.18016182 0.91000003 6178057
-0.1185275 -0.18016182 0.91000003 8481052
-0.13907225 -0.17858143 0.91000003 7694359
-0.13670173 -0.17779125 0.91000003 9010728
-0.13380438 -0.17752787 0.91000003 9406515
-0.13117044 -0.17700107 0.91000003 8681526
-0.12326859 -0.17700107 0.91000003 2559277
-0.12116145 -0.17805466 0.91000003 3617297
-0.13670173 -0.17542069 0.91000003 9667114
-0.13354099 -0.17542069 0.91000003 9339953
-0.13117044 -0.17542069 0.91000003 8811819
-0.12800968 -0.17542069 0.91000003 6505529
-0.1240588 -0.17542069 0.91000003 5980502
-0.13591152 -0.17384036 0.91000003 9732654
-0.13354099 -0.17305017 0.91000003 9864468
-0.13038026 -0.17305017 0.91000003 10061067
-0.1272195 -0.17305017 0.91000003 10328108
-0.124849 -0.17305017 0.91000003 10460747
-0.13354099 -0.17067961 0.91000003 11442445
-0.13038026 -0.17067961 0.91000003 13217578
-0.1272195 -0.17067961 0.91000003 13613889
-0.14111635 -0.17837739 0.91300005 8088401
-0.13953073 -0.1775846 0.91300005 9268496
-0.14111635 -0.175999 0.91300005 9142347
-0.13953073 -0.17520623 0.91300005 9535504
-0.13794518 -0.17441346 0.91300005 9928994
-0.12367497 -0.17441346 0.91300005 9078621
-0.12208942 -0.17520623 0.91300005 7167320
-0.13953073 -0.17203507 0.91300005 9930028
-0.13715237 -0.17203507 0.91300005 10258979
-0.12446778 -0.17203507 0.91300005 12367192
-0.13398126 -0.16965669 0.91300005 12758544
-0.13081008 -0.16886392 0.91300005 14336080
-0.12763891 -0.16965669 0.91300005 14140510
-0.1433271 -0.17836264 0.91700006 9602702
-0.14269322 -0.17558107 0.91633338 9996148
-0.12076778 -0.17479552 0.91500002 10850641
-0.14237629 -0.17260036 0.91600001 10190942
-0.12394589 -0.17161742 0.91500002 13024605
-0.12191632 -0.17280182 0.9156667 11510609
-0.14173461 -0.16960377 0.91700006 9996363
-0.13911828 -0.16932589 0.91550004 10915640
-0.1361286 -0.16896901 0.91500008 12690208
-0.13348024 -0.16843933 0.91500002 14271008
-0.12791851 -0.16843933 0.91500002 14731610
-0.1248759 -0.17021418 0.91600001 13746778
-0.14858919 -0.17734839 0.92000002 13027020
-0.1459263 -0.17788099 0.92000002 11121837
-0.14539371 -0.17495179 0.92000002 11643298
-0.1461926 -0.17255522 0.92000002 12171447
-0.1461926 -0.17015861 0.92000002 12172218
-0.143796 -0.17015861 0.92000002 10649942
-0.12622096 -0.16935976 0.92000002 14861915
-0.12382433 -0.17015861 0.92000002 12893530
-0.13900281 -0.167762 0.92000002 12165448
-0.13660619 -0.167762 0.92000002 13416007
-0.13341075 -0.167762 0.92000002 14271286
-0.13021526 -0.167762 0.92000002 14665295
-0.14811161 -0.17933516 0.92200005 11646398
-0.14811161 -0.17533214 0.92200005 13553354
-0.12169169 -0.17212972 0.92200005 12491093
-0.14410861 -0.1681267 0.92200005 10516570
-0.14090618 -0.1681267 0.92200005 10846017
-0.139305 -0.16652547 0.92200005 12757585
-0.13770376 -0.16652547 0.92200005 13349973
-0.1345014 -0.16652547 0.92200005 14073649
-0.13049833 -0.16652547 0.92200005 14599495
-0.14297111 -0.16867375 0.92500007 9533773
-0.12851334 -0.16867375 0.92500007 14863195
-0.1236941 -0.17028019 0.92500007 12303452
-0.14136466 -0.16706732 0.92500007 10907469
-0.13895503 -0.16546093 0.92500007 13087065
-0.13654542 -0.16706732 0.92500007 14008387
-0.13333257 -0.16706732 0.92500007 14205245
-0.14918314 -0.1695751 0.92700005 14277593
-0.14649998 -0.16903846 0.92700005 11514523
-0.12718134 -0.16903846 0.92700005 14993243
-0.12476648 -0.16903846 0.92700005 12697949
-0.12235162 -0.17064837 0.92700005 11573597
-0.14891483 -0.16662361 0.92700005 14213343
-0.14569503 -0.16662361 0.92700005 10981497
-0.1427436 -0.1663553 0.92700005 9925462
-0.13603573 -0.16581868 0.92700005 13745725
-0.13281593 -0.16581868 0.92700005 13811522
-0.13040107 -0.16581868 0.92700005 13353529
-0.1287912 -0.16742854 0.92700005 14928707
-0.13925548 -0.16420877 0.92700005 13085775
-0.13684066 -0.16420877 0.92700005 13349704
-0.12113251 -0.17200816 0.93000007 11508314
-0.11951743 -0.17200816 0.93000007 11574360
-0.12184453 -0.16928911 0.93133342 10448219
-0.11977446 -0.1699502 0.93200004 10979686
-0.1505273 -0.16509447 0.93200004 15130335
-0.14809945 -0.16509447 0.93200004 12439501
-0.14486232 -0.16509447 0.93200004 10385020
-0.12934694 -0.16572489 0.93100005 13545524
-0.12732548 -0.16612867 0.93100011 14141251
-0.12479199 -0.16714445 0.93080008 11906644
-0.12274758 -0.16797039 0.93000007 10775890
-0.1421288 -0.16474018 0.93000007 11507279
-0.13985723 -0.16330051 0.93100005 12690758
-0.13630405 -0.16378041 0.9306668 13415240
-0.13338903 -0.16410804 0.93100005 13416259
-0.13096374 -0.16410804 0.93100005 12432451
-0.12421943 -0.1656259 0.93500006 10386003
-0.12178375 -0.16724969 0.93500006 9920057
-0.14451675 -0.16400214 0.93500006 10587779
-0.14289293 -0.16400214 0.93500006 11507013
-0.13883346 -0.16237833 0.93500006 12886861
-0.12990268 -0.16400214 0.93500006 13283406
-0.12041702 -0.16923468 0.93700004 10451530
-0.11878973 -0.16923468 0.93700004 11046724
-0.12204426 -0.16598018 0.93700004 9990223
-0.14862278 -0.16381051 0.93700004 13424601
-0.14591068 -0.16326809 0.93700004 11705264
-0.14238496 -0.16272566 0.93700004 11769156
-0.13587594 -0.16272566 0.93700004 13808966
-0.13343507 -0.16272566 0.93700004 13876548
-0.13180777 -0.16272566 0.93700004 13676865
-0.12773965 -0.16435292 0.93700004 13152811
-0.12080257 -0.16814408 0.94000006 10453039
-0.13059734 -0.16324665 0.94000006 13415230
-0.12814865 -0.16324665 0.94000006 13084211
-0.1248837 -0.16487914 0.94000006 11701084
-0.14610578 -0.16161422 0.94000006 12103855
-0.14284083 -0.16079798 0.94000006 11900247
-0.1395759 -0.16079798 0.94000006 12558914
-0.13712724 -0.16161422 0.94000006 13216833
-0.14284083 -0.15834928 0.94000006 12099733
-0.14039211 -0.15834928 0.94000006 11768833
-0.1259674 -0.16359399 0.94200003 12888661
-0.136601 -0.16114008 0.94200003 13152580
-0.13332911 -0.16195808 0.94200003 13151553
-0.1308752 -0.16195808 0.94200003 12952623
-0.13905491 -0.15868619 0.94200003 11835428
-0.13741899 -0.15868619 0.94200003 12294216
-0.12308626 -0.16575615 0.94500005 11707237
-0.12965089 -0.16247387 0.94500005 12821303
-0.12800969 -0.16247387 0.94500005 13150784
-0.12472738 -0.16411498 0.94500005 13152635
-0.13621545 -0.16083269 0.94500005 13019721
-0.13375372 -0.16083269 0.94500005 12627022
-0.12208769 -0.16828299 0.95000005 10454852
-0.12676974 -0.16298965 0.94800007 13481059
-0.12456241 -0.16415843 0.95000005 13415291
-0.1358247 -0.15969694 0.94800007 12755282
-0.13335514 -0.15969694 0.94800007 12694113
-0.13102371 -0.16068856 0.94900006 12955217
-0.12868699 -0.16168366 0.95000005 13349430
-0.14158693 -0.15805057 0.94800007 11177570
-0.13926332 -0.15821728 0.94900006 11375424
-0.13611126 -0.158384 0.95000005 12624461
-0.13363647 -0.158384 0.95000005 12890204
-0.12247323 -0.16715939 0.95300007 11247194
-0.12743835 -0.16219424 0.95300007 14135635
-0.12578326 -0.16219424 0.95300007 13683825
-0.12909338 -0.16053922 0.95300007 13744172
-0.13240346 -0.15888415 0.95300007 13808482
-0.1210717 -0.17414425 0.95500004 11571280
-0.1210717 -0.16916868 0.95500004 10915908
-0.12162456 -0.16640452 0.9550001 11248474
-0.12438875 -0.1633639 0.95500004 13284471
-0.13019358 -0.1592176 0.95500004 14467388
-0.12687653 -0.16087614 0.95500004 13742160
-0.13433984 -0.15755911 0.95500004 12955479
-0.11978833 -0.1746913 0.95800006 10915131
-0.12145204 -0.17136386 0.95800006 10980921
-0.11978833 -0.1721957 0.95800006 11242817
-0.11978833 -0.16886826 0.95800006 10916163
-0.12311581 -0.16387707 0.95800006 11903859
-0.12145204 -0.16470896 0.95800006 10657893
-0.12810697 -0.15971775 0.95800006 13480509
-0.1247795 -0.16138151 0.95800006 13678189
-0.14224863 -0.15805405 0.95800006 12235163
-0.13892119 -0.15805405 0.95800006 12296495
-0.1364256 -0.15805405 0.95800006 12690006
-0.13309814 -0.15805405 0.95800006 13545561
-0.13143444 -0.15805405 0.95800006 14139718
-0.12977067 -0.15472659 0.95800006 12366899
-0.12810697 -0.15472659 0.95800006 11186991
-0.12099791 -0.17690732 0.96100003 11374951
-0.11849448 -0.17523836 0.96100003 10258756
-0.11849448 -0.17273495 0.96100003 11440962
-0.11849448 -0.16939709 0.96100003 10915131
-0.12016346 -0.1660592 0.96100003 9206356
-0.12183236 -0.16355579 0.96100003 10526834
-0.12683916 -0.16021791 0.96100003 13806668
-0.12350134 -0.16188689 0.96100003 12757885
-0.14269407 -0.15688004 0.96100003 13422268
-0.13935623 -0.15688004 0.96100003 12495737
-0.13601834 -0.15688004 0.96100003 12887407
-0.13351494 -0.15688004 0.96100003 13282638
-0.13073337 -0.15743636 0.96100008 13022775
-0.12850814 -0.15771452 0.96100003 11712053
-0.14269407 -0.15521112 0.96100003 14213341
-0.13601834 -0.15521112 0.96100003 13152647
-0.13351494 -0.15521112 0.96100003 13348932
-0.11874109 -0.17727549 0.96300006 9274457
-0.11874109 -0.16724099 0.96300006 7895091
-0.12124973 -0.16305998 0.96300006 10389110
-0.12543075 -0.16055135 0.96300006 14137690
-0.12710313 -0.15804276 0.96300006 12425783
-0.1174334 -0.17782775 0.96600002 8092231
-0.1174334 -0.1753113 0.96600002 9930314
-0.11575581 -0.17615011 0.96600002 8421718
-0.1174334 -0.17195605 0.96600002 10718524
-0.1174334 -0.16943963 0.96600002 10128431
-0.1182722 -0.1669232 0.96600002 8543266
-0.12078866 -0.16272916 0.96600002 10258049
-0.12498271 -0.16021273 0.96600002 13549655
-0.1258215 -0.15769628 0.96600002 12889927
-0.11527386 -0.1750143 0.96900004 9733974
-0.11555435 -0.17220961 0.96900004 9796422
-0.1161153 -0.16912442 0.96900004 10784049
-0.1177981 -0.16660018 0.96900004 9195009
-0.11948091 -0.16491733 0.96900004 7365432
-0.12452945 -0.15986887 0.96900004 13284947
-0.12284658 -0.16155167 0.96900004 13215851
-0.12705365 -0.15650322 0.96900004 12554553
-0.12452945 -0.15818602 0.96900004 12890202
-0.11478671 -0.17724422 0.97200006 7435871
-0.11478671 -0.17386812 0.97200006 9796697
-0.11333141 -0.17253435 0.97400004 10520652
-0.11478671 -0.17049205 0.97200006 10587701
-0.1181628 -0.16542791 0.97200006 8866819
-0.11659463 -0.16644214 0.97300005 10650150
-0.12081816 -0.16221856 0.97300005 10854496
-0.11888757 -0.16340066 0.97333336 9267754
-0.11671446 -0.16407681 0.97400004 9989383
-0.12335369 -0.15968303 0.97300005 13021016
-0.12491499 -0.15698774 0.97200006 13021282
-0.1128321 -0.17221741 0.97700006 10587721
-0.11537718 -0.16967233 0.97700006 11115339
-0.11537718 -0.16797562 0.97700006 11377249
-0.11707395 -0.16288543 0.97700006 9597739
-0.1221641 -0.16034037 0.97700006 12693339
-0.11402955 -0.17529914 0.98000002 9863768
-0.11232758 -0.17529914 0.98000002 9535832
-0.11232758 -0.17189527 0.98000002 10587980
-0.11402955 -0.16934237 0.98000002 11443546
-0.11232758 -0.16934237 0.98000002 11245663
-0.1148805 -0.1659385 0.98000002 11899952
-0.12083725 -0.1608327 0.98000002 12432738
-0.12424113 -0.15827982 0.98000002 13085790
-0.12168823 -0.15827982 0.98000002 13151326
-0.11437862 -0.17754288 0.98300004 9272395
-0.11267143 -0.17754288 0.98300004 8679995
-0.11096432 -0.17498219 0.98300004 9863249
-0.11096432 -0.17242149 0.98300004 10452813
-0.11096432 -0.16986077 0.98300004 10982233
-0.11267143 -0.16644648 0.98300004 12229987
-0.11096432 -0.16644648 0.98300004 12031067
-0.11864647 -0.16217864 0.98300004 10587740
-0.11523218 -0.16388576 0.98300004 10976559
-0.11267143 -0.16388576 0.98300004 10916701
-0.11950003 -0.16047147 0.98300004 12098153
-0.12462145 -0.15705718 0.98300004 13217889
-0.12206075 -0.15705718 0.98300004 13217130
-0.10947949 -0.17448288 0.98500007 10322511
-0.10947949 -0.17191698 0.98500007 10125904
-0.10947949 -0.16935107 0.98500007 10915158
-0.10947949 -0.16678512 0.98500007 11441236
-0.11546662 -0.16250859 0.98500007 10849086
-0.11888787 -0.15994267 0.98500007 11835747
-0.12316442 -0.15566614 0.98500007 13216117
-0.12145376 -0.15566614 0.98500007 13875067
-0.108955 -0.17587224 0.98800004 9536334
-0.10809707 -0.17158265 0.98800004 9731409
-0.10809707 -0.16900894 0.98800004 10718292
-0.10809707 -0.1664352 0.98800004 10915670
-0.11210068 -0.1635755 0.98800009 11048516
-0.108955 -0.16471936 0.98800004 10717752
-0.11839207 -0.1595719 0.98800004 12161900
-0.11581831 -0.16128771 0.98800004 10783566
-0.12010787 -0.15785606 0.98800004 13281142
-0.1084253 -0.17726678 0.99100006 8488270
-0.10670429 -0.17554572 0.99100006 10323278
-0.1084253 -0.17382471 0.99100006 9992783
-0.10670429 -0.17296419 0.99100006 9992271
-0.10498321 -0.17210366 0.99100006 10126163
-0.10670429 -0.16952211 0.99100006 10652755
-0.10498321 -0.16952211 0.99100006 10653264
-0.10670429 -0.16608004 0.99100006 11441496
-0.10498321 -0.16608004 0.99100006 12036441
-0.10928583 -0.16349849 0.99100006 11111964
-0.10670429 -0.16349849 0.99100006 11635544
-0.11703049 -0.16005644 0.99100006 12097390
-0.11530948 -0.16005644 0.99100006 12098639
-0.1127279 -0.16177744 0.99100006 12096830
-0.10928583 -0.16177744 0.99100006 11573047
-0.12047257 -0.15661436 0.99100006 13744514
-0.11789102 -0.15747488 0.99100006 13482871
-0.12391466 -0.15489331 0.99100006 13214577
-0.12133308 -0.15489331 0.99100006 14400629
-0.11186738 -0.15145124 0.99100006 10984828
-0.10530102 -0.17521404 0.99400002 10323542
-0.1035748 -0.17262466 0.99400002 10323030
-0.10184859 -0.17262466 0.99400002 10519627
-0.1035748 -0.1700353 0.99400002 10588750
-0.10098545 -0.1700353 0.99400002 10456382
-0.1035748 -0.16658281 0.99400002 12102234
-0.10184859 -0.16744594 0.99400002 11709267
-0.10587645 -0.16284262 0.99400008 11901007
-0.1035748 -0.16399346 0.99400002 12230975
-0.11306915 -0.16054097 0.99400002 12163384
-0.10961667 -0.16054097 0.99400002 11507027
-0.10702731 -0.16054097 0.99400002 11766104
-0.11565854 -0.15795158 0.99400002 13549692
-0.11306915 -0.15795158 0.99400002 12231543
-0.10961668 -0.15795158 0.99400002 11572306
-0.10702731 -0.15881468 0.99400002 11964241
-0.12083727 -0.15363593 0.99400002 13346157
-0.11824791 -0.15449907 0.99400002 13085548
-0.11565854 -0.15449907 0.99400002 12687704
-0.11306915 -0.15449907 0.99400002 11769417
-0.11047982 -0.15449907 0.99400002 11376721
-0.12083727 -0.15190972 0.99400002 12558753
-0.11824791 -0.15190972 0.99400002 10979486
-0.11565854 -0.15190972 0.99400002 9599367
-0.11393226 -0.15190972 0.99400002 10252914
-0.10302169 -0.17574283 0.99700004 10257751
-0.10042448 -0.17487712 0.99700004 10126923
-0.10042448 -0.17314565 0.99700004 10519872
-0.098693043 -0.17227994 0.99700004 10454593
-0.0978273 -0.16968274 0.99700004 9863748
-0.10215598 -0.16621985 0.99700004 12756811
-0.10042448 -0.16708559 0.99700004 11575108
-0.098693043 -0.16708559 0.99700004 11046212
-0.10273312 -0.16333409 0.9970001 11967556
-0.10042448 -0.1644884 0.99700004 11705158
-0.10561883 -0.16015975 0.99700004 12363332
-0.1038874 -0.16015975 0.99700004 12363317
-0.10735033 -0.15756258 0.99700004 12095307
-0.12639633 -0.15496537 0.99700004 12166790
-0.1246649 -0.15409963 0.99700004 13347693
-0.1229334 -0.15409963 0.99700004 14135405
-0.10908176 -0.15496537 0.99700004 11312707
-0.10735033 -0.15583111 0.99700004 12158012
-0.1246649 -0.1523682 0.99700004 13483174
-0.1229334 -0.1523682 0.99700004 13676196
-0.098990016 -0.17714 1 9403203
-0.098990016 -0.17540334 1 9996615
-0.097253308 -0.17279834 1 10323272
-0.095516667 -0.17193002 1 9926453
-0.097253308 -0.16845669 1 10654020
-0.095516667 -0.16932499 1 9995588
-0.097253308 -0.16671999 1 11702086
-0.10072666 -0.16324666 1 11309396
-0.098121658 -0.16498336 1 11372871
-0.10246336 -0.16151002 1 12228434
-0.10593665 -0.15716836 1 12553521
-0.10420001 -0.15803669 1 12758798
-0.10767335 -0.15456332 1 11114798
-0.097545072 -0.17592956 1.003 10062915
-0.095222592 -0.1747683 1.003 10390841
-0.094061367 -0.1724458 1.003 9927712
-0.094061367 -0.16983299 1.003 9994819
-0.094932288 -0.16634923 1.003 11901770
-0.099286981 -0.16373642 1.003 10847548
-0.097545072 -0.16373642 1.003 11700260
-0.095803216 -0.16373642 1.003 12619571
-0.10277075 -0.16025265 1.003 12626762
-0.10015791 -0.1611236 1.003 10982994
-0.097545072 -0.16199456 1.003 11176449
-0.10364167 -0.15763986 1.003 12891961
-0.10625445 -0.155027 1.003 11439937
-0.1045126 -0.155027 1.003 11767125
-0.097545072 -0.15328515 1.003 10912549
-0.10015791 -0.15154324 1.003 11438698
-0.097545072 -0.15154324 1.003 11170872
-0.095803216 -0.15154324 1.003 10975055
-0.094342709 -0.17645575 1.006 9998144
-0.092595585 -0.17470866 1.006 10389814
-0.092013232 -0.17179686 1.006 9798453
-0.092595585 -0.16946743 1.006 10521159
-0.092595585 -0.16684678 1.006 11375178
-0.096089773 -0.16247909 1.006 11767582
-0.094342709 -0.16335261 1.006 11770174
-0.092595585 -0.16422614 1.006 11178559
-0.096963301 -0.16073197 1.006 10849580
-0.10307814 -0.1572378 1.006 13218620
-0.10045748 -0.15811136 1.006 12955733
-0.09783683 -0.15811136 1.006 13022010
-0.10366049 -0.15432599 1.006 11242069
-0.10045748 -0.15461716 1.006 11901994
-0.096963301 -0.15461716 1.006 11374884
-0.091612637 -0.17622304 1.0080001 9866302
-0.09102913 -0.17330545 1.008 9994809
-0.09102913 -0.16892904 1.008 10914370
-0.09102913 -0.16630322 1.008 11176524
-0.091904402 -0.16367736 1.008 11242808
-0.096280806 -0.15930098 1.008 12365901
-0.09453027 -0.16017625 1.008 11968588
-0.096280806 -0.15755041 1.008 13809718
-0.088666372 -0.17557698 1.011 10258496
-0.088666372 -0.17294335 1.011 9863229
-0.088666372 -0.16943182 1.011 10849859
-0.088666372 -0.16592027 1.011 11243861
-0.091300055 -0.16328663 1.011 11573294
-0.089544244 -0.16328663 1.011 11641154
-0.0930558 -0.16065297 1.011 12297807
-0.091300055 -0.16065297 1.011 12562002
-0.089544244 -0.15977509 1.011 13285719
-0.096567348 -0.15626352 1.011 12099103
-0.093933702 -0.15714142 1.011 13349957
-0.091300055 -0.15626352 1.011 13481085
-0.093933702 -0.15450777 1.011 12223570
-0.091300055 -0.15450777 1.011 13087854
-0.093933702 -0.15275198 1.011 11957860
-0.08540754 -0.17521751 1.0140001 10257982
-0.081885561 -0.17521751 1.0140001 10390078
-0.08540754 -0.17257603 1.0140001 9666628
-0.081885561 -0.17257603 1.0140001 9599049
-0.08540754 -0.16993457 1.0140001 10785100
-0.081885561 -0.16993457 1.0140001 10520657
-0.08540754 -0.16641262 1.0140001 12035669
-0.08217907 -0.16670613 1.0140002 11641162
-0.088635981 -0.16259716 1.0140002 12363601
-0.085701048 -0.16318417 1.0140002 12427867
-0.088049002 -0.16024922 1.0140001 13153617
-0.091570973 -0.1584882 1.0140001 13874541
-0.089222968 -0.15790121 1.0140002 13876086
-0.091570973 -0.15320523 1.0140001 12415839
-0.089809954 -0.15496625 1.0140001 13350491
-0.079478547 -0.17573589 1.0170001 10390077
-0.077123642 -0.17544155 1.0170001 10455611
-0.079478547 -0.17220353 1.0170001 10124109
-0.077123642 -0.1724979 1.0170001 10322760
-0.07418 -0.17308661 1.0170001 10388801
-0.079478547 -0.16955423 1.0170001 10654284
-0.077712394 -0.16955423 1.0170001 11112780
-0.081244715 -0.16602185 1.0170001 11116361
-0.079478547 -0.16690496 1.0170001 10129470
-0.077712394 -0.16690496 1.0170001 11761746
-0.084777109 -0.16248947 1.0170001 11902562
-0.082422197 -0.16366696 1.0170001 11049556
-0.085660219 -0.16072331 1.0170001 12757857
-0.088309504 -0.15719089 1.0170001 13547663
-0.086543337 -0.15807399 1.0170001 13350260
-0.088309504 -0.15542471 1.0170001 13285448
-0.073513091 -0.17536862 1.0200001 10587199
-0.076170184 -0.17182581 1.0200001 10914379
-0.073513091 -0.17271149 1.0200001 10652995
-0.076170184 -0.16916871 1.0200001 12158051
-0.081484377 -0.1629688 1.0200001 9797458
-0.079713002 -0.16385451 1.0200001 8886072
-0.077941634 -0.16474022 1.0200001 10590730
-0.085027188 -0.159426 1.0200001 13217385
-0.08325582 -0.16031171 1.0200001 12557923
-0.085027188 -0.15765458 1.0200001 13151596
-0.070176117 -0.17499609 1.023 10718277
-0.072840981 -0.17233118 1.023 10850377
-0.071064405 -0.17233118 1.023 12744572
-0.055074885 -0.17233118 1.023 7755875
-0.053298302 -0.17233118 1.023 9331299
-0.073729306 -0.16966626 1.023 12092259
-0.076394223 -0.16611305 1.023 11770936
-0.073729306 -0.16700134 1.023 12744572
-0.062181354 -0.16700134 1.023 12824156
-0.078170873 -0.16344813 1.023 10313528
-0.081724033 -0.16078322 1.023 12558175
-0.079947449 -0.16078322 1.023 12494435
-0.082612358 -0.15811828 1.023 12759669
-0.067709148 -0.17550927 1.026 10915150
-0.065036431 -0.17550927 1.026 11114816
-0.061769769 -0.17521231 1.026 11180599
-0.057909153 -0.17461835 1.026 10523476
-0.055236395 -0.17461835 1.026 7032648
-0.052266739 -0.17521231 1.026 7685675
-0.048109155 -0.17550927 1.026 7418694
-0.046327297 -0.1764002 1.026 6947123
-0.043654606 -0.1764002 1.026 6422864
-0.070084944 -0.17164867 1.026 12222059
-0.067709148 -0.17194563 1.026 12744572
-0.065036431 -0.17194563 1.026 12225890
-0.061472803 -0.17194563 1.026 12422755
-0.057909153 -0.17194563 1.026 11441249
-0.055236395 -0.17105471 1.026 12744572
-0.070381902 -0.16927293 1.026 11572816
-0.067709148 -0.16927293 1.026 12744572
-0.065036431 -0.16927293 1.026 12169317
-0.061472803 -0.16927293 1.026 12620396
-0.057909153 -0.16927293 1.026 12554084
-0.073945522 -0.16570929 1.026 12430940
-0.070381902 -0.16660017 1.026 12484465
-0.067709148 -0.16660018 1.026 12744572
-0.065036431 -0.16660018 1.026 12754784
-0.078400113 -0.16214566 1.026 11313511
-0.076618254 -0.16303656 1.026 11838792
-0.073945522 -0.16303656 1.026 12744572
-0.070381902 -0.16303656 1.026 13014133
-0.067709148 -0.16303656 1.026 13349470
-0.065036431 -0.16392744 1.026 12744572
-0.078400113 -0.16036381 1.026 12368999
-0.076618254 -0.16036381 1.026 10848861
-0.073945522 -0.16036381 1.026 12744572
-0.070381902 -0.16036381 1.026 12884610
-0.079291008 -0.15858196 1.026 11903339
-0.076618254 -0.15858196 1.026 10776171
-0.073945522 -0.15858196 1.026 12418422
-0.070381902 -0.15858196 1.026 12744572
-0.05545174 -0.17708792 1.0300001 8406829
-0.053663 -0.17708792 1.0300001 8272641
-0.050085455 -0.17708792 1.0300001 7691286
-0.034880966 -0.17708792 1.0300001 8883865
-0.032197785 -0.17708792 1.0300001 11249224
-0.050085455 -0.17529912 1.0300001 7692377
