# .PCD v0.7 - Point Cloud Data file format
VERSION 0.7
FIELDS x y z rgba
SIZE 4 4 4 4
TYPE F F F U
COUNT 1 1 1 1
WIDTH 515
HEIGHT 1
VIEWPOINT 0 0 0 1 0 0 0
POINTS 515
DATA ascii
0.1910889 -0.18741409 1.0580001 10708324
0.18978815 -0.18794551 1.0610001 6903638
0.18786106 -0.18786101 1.064 7428189
0.18733077 -0.18733077 1.0680001 9122409
0.18785699 -0.18599699 1.0710001 12564857
0.18465282 -0.18651798 1.074 10522710
0.186518 -0.18651798 1.074 11506001
0.18838319 -0.18465284 1.074 13219720
0.17785205 -0.18721266 1.0780001 12432993
0.18159631 -0.18721266 1.0780001 10128232
0.1834684 -0.18721266 1.0780001 10325852
0.043994967 -0.1834684 1.0780001 16382200
0.046803169 -0.1834684 1.0780001 15527391
0.049611367 -0.1834684 1.0780001 11184806
0.1759799 -0.18534055 1.0780001 13484633
0.17785205 -0.18534055 1.0780001 13157469
0.18471651 -0.18471651 1.0780001 10787183
0.18721268 -0.18440448 1.0780001 12362085
0.044931032 -0.18159631 1.0780001 15006206
0.046803169 -0.18159631 1.0780001 13363162
0.049611367 -0.18159631 1.0780001 9582216
0.044931032 -0.17972416 1.0780001 13958910
0.046803169 -0.17972416 1.0780001 11194042
0.048675302 -0.17878811 1.0780001 9053015
0.052565414 -0.18397897 1.0810001 9526088
0.05444276 -0.18397897 1.0810001 9333560
0.058197442 -0.18397897 1.0810001 12944681
0.060074791 -0.18397897 1.0810001 12891179
0.17459229 -0.18585634 1.0810001 13808726
0.17834699 -0.18397897 1.0810001 13943921
0.18085012 -0.18523055 1.0810001 10389869
0.18397897 -0.18397897 1.0810001 9723265
0.050688107 -0.18022431 1.0810001 7012668
0.052565414 -0.181163 1.0810001 8016385
0.05444276 -0.181163 1.0810001 8347652
0.058197442 -0.181163 1.0810001 11636754
0.060700562 -0.18147591 1.0810001 12956201
0.17834699 -0.18210168 1.0810001 14796166
0.18585633 -0.18210168 1.0810001 14077575
0.18773367 -0.18210168 1.0810001 14668156
0.045994744 -0.17834701 1.0810001 12703948
0.050688107 -0.17834701 1.0810001 6816028
0.052565414 -0.17834701 1.0810001 8601345
0.05444276 -0.17834701 1.0810001 10458125
0.058197442 -0.17834701 1.0810001 13619253
0.061013445 -0.17834701 1.0810001 14667852
0.046933416 -0.175531 1.0810001 12636335
0.049749434 -0.175531 1.0810001 9865566
0.058197442 -0.17646964 1.0810001 16043059
0.17241195 -0.18654406 1.085 13876048
0.17523834 -0.18465975 1.085 14206548
0.17712262 -0.18465975 1.085 14078309
0.18277551 -0.18465975 1.085 8030335
0.056528501 -0.18183336 1.085 9993991
0.062181339 -0.1808912 1.085 14207043
0.064065628 -0.18277551 1.085 13220976
0.17523834 -0.18277551 1.085 14601811
0.17806476 -0.18183336 1.085 15127921
0.18151931 -0.18214741 1.085 13878930
0.18465975 -0.18183336 1.085 14866575
0.18654405 -0.1808912 1.085 16708237
0.052759919 -0.17712262 1.085 9711420
0.055900406 -0.17775074 1.085 13089327
0.061239213 -0.17712262 1.085 15850550
0.065007776 -0.17900693 1.085 14272831
0.067834206 -0.17806478 1.085 14005813
0.069718502 -0.17900693 1.085 13737296
0.054644208 -0.17523839 1.085 14271082
0.05841279 -0.17523839 1.085 15386673
0.060297083 -0.17523839 1.085 15323910
0.047107086 -0.17335407 1.085 15789262
0.049933523 -0.17335407 1.085 15916692
0.067077018 -0.18328087 1.0880001 12891747
0.070856005 -0.18328087 1.0880001 12432472
0.1662754 -0.1842256 1.0880001 13348435
0.16910966 -0.1842256 1.0880001 13481020
0.17288867 -0.1842256 1.0880001 14205498
0.064242773 -0.18139134 1.0880001 13880150
0.067077018 -0.18139134 1.0880001 13612115
0.070856005 -0.18139134 1.0880001 13611094
0.1662754 -0.18139134 1.0880001 12754769
0.16910966 -0.18139134 1.0880001 13088584
0.17288867 -0.18139134 1.0880001 14666567
0.17572288 -0.18139134 1.0880001 14995024
0.17761238 -0.18139134 1.0880001 15323481
0.18328087 -0.18139134 1.0880001 16509322
0.064242773 -0.17761238 1.0880001 15194199
0.06613227 -0.17761238 1.0880001 14533437
0.071170911 -0.17824221 1.0880001 14001227
0.1662754 -0.17950189 1.0880001 13480527
0.16942458 -0.17887205 1.0880001 14073695
0.17288867 -0.17855713 1.0880001 15125593
0.17572288 -0.17855713 1.0880001 15781977
0.17855713 -0.17855713 1.0880001 16246886
0.18139137 -0.17855713 1.0880001 16513154
0.1842256 -0.17855713 1.0880001 16446829
0.18705983 -0.17950189 1.0880001 16186003
0.052905798 -0.17572291 1.0880001 12764279
0.056684803 -0.17572291 1.0880001 14797149
0.062353268 -0.17572291 1.0880001 15326779
0.064242773 -0.17572291 1.0880001 14601841
0.067077018 -0.17572291 1.0880001 13878557
0.070856005 -0.17572291 1.0880001 14008884
0.17572288 -0.17572291 1.0880001 16379774
0.17950188 -0.17572291 1.0880001 16449198
0.18139137 -0.17572291 1.0880001 14538662
0.1842256 -0.17572291 1.0880001 13282858
0.18705983 -0.17572291 1.0880001 15509584
0.049126837 -0.17194392 1.0880001 16246225
0.052275978 -0.17257375 1.0880001 16115583
0.055740051 -0.17288865 1.0880001 15720044
0.0585743 -0.17288865 1.0880001 15193433
0.061408535 -0.17288865 1.0880001 14531656
0.064242773 -0.17288865 1.0880001 13348942
0.067077018 -0.17288865 1.0880001 12491333
0.18139137 -0.17383339 1.0880001 12363131
0.1842256 -0.17383339 1.0880001 10183280
0.18705983 -0.17383339 1.0880001 15389597
0.055740055 -0.16910964 1.0880001 16445503
0.0585743 -0.17005441 1.0880001 16708681
0.061723448 -0.16942458 1.0880001 14345317
0.064242773 -0.16910964 1.0880001 12429446
0.06613227 -0.17005441 1.0880001 9470313
0.073893428 -0.18378624 1.0910001 11116398
0.076735497 -0.18378624 1.0910001 9141619
0.079577558 -0.18378624 1.0910001 8417336
0.081472233 -0.18378624 1.0910001 8285758
0.15536571 -0.18473357 1.0910001 12429882
0.15726037 -0.18473357 1.0910001 12626757
0.16010243 -0.18473358 1.0910001 12888654
0.16389185 -0.18473357 1.0910001 13283402
0.073893428 -0.18189152 1.0910001 13742951
0.076735497 -0.18189152 1.0910001 12168040
0.079577558 -0.18189152 1.0910001 10849336
0.081472233 -0.18189152 1.0910001 10128448
0.15441835 -0.18189152 1.0910001 12166440
0.15726037 -0.18189152 1.0910001 12165687
0.16010243 -0.18189152 1.0910001 12361541
0.16389185 -0.18189152 1.0910001 12756802
0.073893428 -0.17904946 1.0910001 14332259
0.076735497 -0.17904946 1.0910001 13548134
0.079577558 -0.17999683 1.0910001 11704632
0.15726037 -0.17999683 1.0910001 12490780
0.16010243 -0.17904946 1.0910001 13743411
0.16389185 -0.17904946 1.0910001 13940290
0.16673388 -0.17810211 1.0910001 14266970
0.16862859 -0.17810211 1.0910001 14334820
0.071051374 -0.17431271 1.0910001 14001701
0.073893428 -0.17526007 1.0910001 14858842
0.076735497 -0.17620744 1.0910001 14009986
0.16010243 -0.17620744 1.0910001 13084963
0.16389185 -0.17620744 1.0910001 14665291
0.16673388 -0.17620744 1.0910001 15324261
0.16957596 -0.17526007 1.0910001 16045178
0.17241803 -0.17526007 1.0910001 16043631
0.17494428 -0.17494428 1.0910001 16443997
0.17873368 -0.17494428 1.0910001 16379025
0.071051374 -0.17241804 1.0910001 12489751
0.17526007 -0.17241804 1.0910001 16116081
0.17904946 -0.17241804 1.0910001 13024076
0.18189153 -0.17241804 1.0910001 11966544
0.052104346 -0.17052332 1.0910001 16704674
0.058735814 -0.16862857 1.0910001 16449067
0.060630523 -0.16862857 1.0910001 15661135
0.067577764 -0.16926014 1.0910001 11377265
0.07010404 -0.17052332 1.0910001 10581074
0.17620741 -0.17052332 1.0910001 15248741
0.17873368 -0.16926014 1.0910001 12429467
0.085574254 -0.18446007 1.095 9873716
0.152132 -0.18446007 1.095 12167745
0.15403366 -0.18446007 1.095 12234054
0.083038718 -0.18129066 1.095 11045961
0.085574254 -0.18255839 1.095 12622896
0.152132 -0.18160757 1.095 12295720
0.1549845 -0.18065678 1.095 12359688
0.079869322 -0.1787551 1.095 12494662
0.08272177 -0.1787551 1.095 11110470
0.1549845 -0.1787551 1.095 12491056
0.15783694 -0.1787551 1.095 12888363
0.07701683 -0.17495181 1.095 14008422
0.079869322 -0.17685348 1.095 12820821
0.081770942 -0.17685348 1.095 11837769
0.152132 -0.17685348 1.095 13484108
0.1549845 -0.17590263 1.095 13944412
0.15783694 -0.17590263 1.095 12695611
0.16068943 -0.17495181 1.095 12028965
0.16354191 -0.17495181 1.095 14004828
0.16639438 -0.17495181 1.095 16309056
0.073530465 -0.1717824 1.095 12224317
0.076066002 -0.17305018 1.095 13675598
0.152132 -0.17305018 1.095 14796903
0.15403366 -0.17305018 1.095 14927976
0.16068943 -0.17305018 1.095 12877096
0.1673452 -0.17305018 1.095 15785226
0.16924685 -0.17305018 1.095 16505945
0.17209935 -0.17209935 1.095 16573562
0.17495182 -0.17114851 1.095 15979862
0.070361063 -0.16924684 1.095 11691128
0.087715574 -0.18305856 1.098 10859031
0.14873506 -0.18305856 1.098 12427806
0.15064195 -0.184012 1.098 12297520
0.085808702 -0.18115173 1.098 11898924
0.087715574 -0.18115173 1.098 11307530
0.14873506 -0.18115173 1.098 12295176
0.15064195 -0.18115173 1.098 12360468
0.083901837 -0.177338 1.098 12296510
0.085808702 -0.17829141 1.098 11967806
0.087715574 -0.17924483 1.098 11833642
0.14873506 -0.17829141 1.098 12626479
0.15127757 -0.17860922 1.098 12627255
0.080088139 -0.17543112 1.098 13147209
0.082948402 -0.17543112 1.098 13017129
0.14873506 -0.17543112 1.098 14006302
0.15159538 -0.17543112 1.098 14467914
0.076274402 -0.1716174 1.098 12954206
0.078816891 -0.17288867 1.098 13741895
0.081994966 -0.17352429 1.098 13215775
0.14873506 -0.17352429 1.098 14073345
0.15159538 -0.17257085 1.098 14796122
0.15445566 -0.1716174 1.098 14862448
0.15731595 -0.17352429 1.098 12828242
0.16017623 -0.1716174 1.098 13066053
0.16335434 -0.17225304 1.098 14274158
0.16653246 -0.17225304 1.098 14795326
0.16971053 -0.1716174 1.098 16372034
0.073414102 -0.16971052 1.098 13673342
0.076274402 -0.16971052 1.098 14795887
0.1716174 -0.16971052 1.098 15127562
0.067693532 -0.16780369 1.098 14595178
0.070553839 -0.16780369 1.098 12826741
0.073414102 -0.16780369 1.098 15716479
0.076274402 -0.16780369 1.098 16707187
0.08994893 -0.18372543 1.102 9142830
0.091862708 -0.18372543 1.102 9323844
0.093776524 -0.18372543 1.102 9536827
0.13970788 -0.18372543 1.102 12623173
0.1425786 -0.18372543 1.102 13019710
0.14544931 -0.18372543 1.102 12822327
0.14736314 -0.18372543 1.102 12493866
0.08994893 -0.18181166 1.102 10781740
0.091862708 -0.18181166 1.102 10715470
0.094733432 -0.18181166 1.102 10978635
0.13970788 -0.18181166 1.102 12100673
0.1425786 -0.18181166 1.102 12361277
0.14544931 -0.18181166 1.102 12361018
0.14736314 -0.18181166 1.102 12295457
0.089310996 -0.17862198 1.102 13150284
0.091862708 -0.17989781 1.102 12167002
0.094733432 -0.17989781 1.102 11834163
0.13970788 -0.17894092 1.102 12230711
0.14289758 -0.1792599 1.102 12098337
0.14544931 -0.17894092 1.102 12428843
0.14736314 -0.17894092 1.102 12560685
0.085483365 -0.17479436 1.102 13475867
0.088673055 -0.17543229 1.102 14337350
0.10717318 -0.17415644 1.102 14073154
0.13779411 -0.17415644 1.102 13742170
0.13970788 -0.17511332 1.102 14395216
0.1425786 -0.17511332 1.102 14007872
0.14544931 -0.17511332 1.102 13740081
0.14736314 -0.17511332 1.102 13607968
0.080379896 -0.17224261 1.102 13877317
0.082293674 -0.17224261 1.102 13874746
0.085164398 -0.17224261 1.102 12296246
0.088035114 -0.17224261 1.102 12100688
0.14353549 -0.17224261 1.102 13810265
0.14544931 -0.17224261 1.102 13475676
0.14832002 -0.17224261 1.102 13612609
0.15119073 -0.17224261 1.102 14992988
0.15788905 -0.17224261 1.102 12500569
0.079422988 -0.16937189 1.102 15588445
0.082293674 -0.16937189 1.102 14404957
0.15119073 -0.16937189 1.102 16178811
0.15406144 -0.16937189 1.102 16178829
0.15788905 -0.16937189 1.102 14799468
0.16075976 -0.16937189 1.102 15128432
0.16363049 -0.16937189 1.102 15460469
0.16650119 -0.16937189 1.102 14006370
0.16937187 -0.16937189 1.102 14199364
0.17224261 -0.168415 1.102 13737287
0.17511332 -0.16937189 1.102 14339405
0.070810862 -0.16650116 1.102 13746802
0.073681548 -0.16650116 1.102 15916415
0.076552272 -0.16650116 1.102 16706679
0.07846608 -0.16650116 1.102 16709494
0.15406144 -0.16650116 1.102 16644253
0.15788905 -0.16650116 1.102 15586449
0.16075976 -0.16650116 1.102 15584079
0.16363049 -0.16650116 1.102 15260268
0.16650119 -0.16650116 1.102 13411940
0.16937187 -0.16650116 1.102 13532511
0.17224261 -0.16650116 1.102 14399877
0.073681548 -0.16458738 1.102 16175212
0.076552272 -0.16458738 1.102 16706387
0.15406144 -0.16458738 1.102 16574308
0.15884595 -0.16458738 1.102 15253879
0.16075976 -0.16458738 1.102 15319400
0.16363049 -0.16458738 1.102 14721924
0.1703288 -0.16458738 1.102 13675936
0.17224261 -0.16458738 1.102 15127999
0.17415643 -0.16458738 1.102 16574933
0.10170788 -0.18422559 1.105 12164154
0.1036269 -0.18422559 1.105 12164931
0.10650542 -0.18422559 1.105 11771458
0.10938397 -0.18422559 1.105 10590020
0.11226247 -0.18422559 1.105 10127934
0.115141 -0.18422559 1.105 10123304
0.11801954 -0.18422559 1.105 10517286
0.12185755 -0.18422559 1.105 11638316
0.12473609 -0.18422559 1.105 12099643
0.12857413 -0.18422559 1.105 12034625
0.13433117 -0.18422559 1.105 12429135
0.13625018 -0.18422559 1.105 12427596
0.13816921 -0.18422559 1.105 12491850
0.097869866 -0.18134709 1.105 11702064
0.10074838 -0.18134709 1.105 11966506
0.1036269 -0.18134709 1.105 12295987
0.10650542 -0.18134709 1.105 12494131
0.10938397 -0.18134709 1.105 12361533
0.11226247 -0.18134709 1.105 12098372
0.115141 -0.18134709 1.105 11900736
0.11801954 -0.18134709 1.105 11636803
0.12185755 -0.18134709 1.105 11441474
0.12473609 -0.18134709 1.105 11706183
0.12761462 -0.18134709 1.105 12428364
0.13049312 -0.18134709 1.105 12429899
0.13337165 -0.18134709 1.105 12164935
0.13625018 -0.18134709 1.105 12232264
0.13816921 -0.18134709 1.105 12033611
0.092112787 -0.17846857 1.105 13151334
0.094991326 -0.17846857 1.105 12295451
0.097869866 -0.17846857 1.105 11505695
0.10074838 -0.17846857 1.105 12097326
0.1036269 -0.17846857 1.105 12492551
0.10650542 -0.17846857 1.105 12689689
0.10938397 -0.17846857 1.105 12689698
0.11226247 -0.17846857 1.105 12755231
0.115141 -0.17846857 1.105 12493584
0.11801954 -0.17846857 1.105 12095786
0.12185755 -0.17846857 1.105 11834431
0.12473609 -0.17846857 1.105 12031806
0.12761462 -0.17846857 1.105 12623411
0.13049312 -0.17846857 1.105 12689703
0.13337165 -0.17846857 1.105 12558392
0.13625018 -0.17846857 1.105 12489551
0.13816921 -0.17846857 1.105 12687712
0.14200722 -0.17846857 1.105 12887305
0.091473125 -0.17527023 1.105 13684560
0.094991326 -0.17559005 1.105 12431159
0.097869866 -0.17559004 1.105 10849842
0.10074838 -0.17559005 1.105 12425016
0.1036269 -0.17559004 1.105 13151801
0.1061856 -0.17590988 1.105 13086518
0.10938397 -0.17559004 1.105 13216053
0.11226247 -0.17559005 1.105 13348921
0.115141 -0.17559004 1.105 12956239
0.11801954 -0.17559005 1.105 12558907
0.12185755 -0.17559005 1.105 12691530
0.12473609 -0.17559004 1.105 13087304
0.12761462 -0.17559005 1.105 13218366
0.13049312 -0.17559004 1.105 13483067
0.13337165 -0.17559004 1.105 13415750
0.13625018 -0.17559004 1.105 12758610
0.13816921 -0.17654954 1.105 13479773
0.091153294 -0.17271151 1.105 12230223
0.094991326 -0.17271151 1.105 11035946
0.097869866 -0.17271151 1.105 9397021
0.1036269 -0.17271151 1.105 14863929
0.10650542 -0.17271151 1.105 15517735
0.10938397 -0.17271151 1.105 15517752
0.11226247 -0.17271151 1.105 14992978
0.115141 -0.17271151 1.105 14401114
0.11801954 -0.17271151 1.105 13873743
0.12185755 -0.17271151 1.105 13940570
0.12473609 -0.17271151 1.105 14991949
0.12761462 -0.17271151 1.105 15189822
0.13049312 -0.17271151 1.105 15255623
0.13337165 -0.17271151 1.105 14532170
0.13625018 -0.17271151 1.105 12561223
0.13912871 -0.17271151 1.105 14654792
0.14200722 -0.17271151 1.105 14603095
0.085396238 -0.16983297 1.105 14138725
0.088274777 -0.16983297 1.105 13744998
0.12473609 -0.17079246 1.105 14592846
0.12857413 -0.17079246 1.105 15451201
0.13049312 -0.17079246 1.105 14929485
0.13433117 -0.17079246 1.105 13744456
0.13625018 -0.17079246 1.105 13082682
0.13944855 -0.17015281 1.105 12885571
0.14296675 -0.16983297 1.105 13938274
0.14584528 -0.16983297 1.105 14861943
0.14872381 -0.16983297 1.105 15585123
0.07995905 -0.1656751 1.105 16443750
0.082517706 -0.16599494 1.105 16113776
0.084436722 -0.16599494 1.105 16106614
0.1400882 -0.16695443 1.105 14208629
0.14392626 -0.16599494 1.105 16176467
0.14584528 -0.16599494 1.105 15588671
0.14872381 -0.16599494 1.105 15389477
0.15160231 -0.16599494 1.105 16638283
0.15735938 -0.16503544 1.105 15909510
0.074841648 -0.1631164 1.105 15780684
0.076760672 -0.1631164 1.105 15914032
0.079639204 -0.1631164 1.105 16112198
0.082517706 -0.1631164 1.105 16307028
0.14584528 -0.1631164 1.105 14533633
0.14872381 -0.1631164 1.105 14005761
0.15160231 -0.1631164 1.105 14920204
0.15448084 -0.1631164 1.105 14855723
0.16023788 -0.1631164 1.105 14723194
0.16311641 -0.1631164 1.105 15447700
0.074841648 -0.16119741 1.105 14929827
0.076760672 -0.16119741 1.105 15124116
0.078679688 -0.16119741 1.105 15388567
0.091483258 -0.17141071 1.1090001 12357971
0.094372198 -0.17141071 1.1090001 9984551
0.097261153 -0.17141071 1.1090001 9187329
0.10015012 -0.17237371 1.1090001 11166478
0.10271804 -0.17205271 1.1090001 13146914
0.10689097 -0.17141071 1.1090001 13677323
0.10977992 -0.17141071 1.1090001 14662708
0.11266885 -0.17141071 1.1090001 14530914
0.1155578 -0.17141071 1.1090001 14202192
0.11844676 -0.17141071 1.1090001 13868893
0.12133568 -0.17141071 1.1090001 13672549
0.12326165 -0.17141071 1.1090001 14132584
0.1271136 -0.17141071 1.1090001 15058741
0.13289148 -0.17141071 1.1090001 14332234
0.091483258 -0.16948478 1.1090001 12495723
0.094372198 -0.16948478 1.1090001 8353117
0.096298166 -0.16948478 1.1090001 8406863
0.10015012 -0.16948478 1.1090001 9515851
0.10303903 -0.16948478 1.1090001 10718552
0.10592798 -0.16948478 1.1090001 11239472
0.1155578 -0.16948478 1.1090001 14003263
0.12422463 -0.16948478 1.1090001 14133597
0.1271136 -0.16948478 1.1090001 14992714
0.13000253 -0.16948478 1.1090001 15126597
0.13385445 -0.16948478 1.1090001 13483603
0.13674341 -0.16948478 1.1090001 13675864
0.13866939 -0.16948478 1.1090001 12690262
0.086668357 -0.16659583 1.1090001 16173684
0.088594325 -0.16659583 1.1090001 16046195
0.094372198 -0.16659583 1.1090001 14603892
0.10015012 -0.16563286 1.1090001 16707440
0.10592798 -0.16563286 1.1090001 14532681
0.13481744 -0.16659583 1.1090001 15850590
0.13674341 -0.16659583 1.1090001 15916388
0.13931136 -0.16627485 1.1090001 15981159
0.14252128 -0.16659583 1.1090001 15786345
0.071260661 -0.16370687 1.1090001 14792601
0.073186599 -0.16370687 1.1090001 15323241
0.10015012 -0.16370687 1.1090001 15852876
0.10303903 -0.16370687 1.1090001 16181871
0.10592798 -0.16370687 1.1090001 15322438
0.13674341 -0.16370687 1.1090001 14663731
0.13963234 -0.16370687 1.1090001 14464060
0.14252128 -0.16370687 1.1090001 14859875
0.14444725 -0.16370687 1.1090001 15387954
0.073186599 -0.16178094 1.1090001 14932147
0.076075554 -0.15985495 1.1090001 15858425
0.078964502 -0.15985495 1.1090001 16052719
0.091813229 -0.16816315 1.113 14536835
0.097934119 -0.16880748 1.1130002 11242113
0.10051133 -0.16816315 1.113 13084821
0.10341068 -0.16816315 1.113 13412242
0.10631005 -0.16816315 1.113 12890956
0.10920943 -0.1700961 1.113 13212697
0.11210877 -0.16912962 1.113 14005841
0.114686 -0.16880748 1.1130002 14133821
0.11887398 -0.16912962 1.113 14073147
0.12177332 -0.16912962 1.113 14072911
0.1246727 -0.16816315 1.113 14336352
0.12757207 -0.16816315 1.113 14597472
0.13047144 -0.16816315 1.113 14865476
0.13337079 -0.16816315 1.113 14998099
0.091813229 -0.16623028 1.113 16706647
0.097611964 -0.16623028 1.113 16708450
0.10341068 -0.16623028 1.113 16116608
0.11210877 -0.16623028 1.113 14138963
0.11500815 -0.16623028 1.113 14200653
0.11887398 -0.16623028 1.113 14662748
0.13337079 -0.16623028 1.113 16568909
0.070551232 -0.16236445 1.113 15393750
0.094712585 -0.16429734 1.113 15066649
0.097611964 -0.16429734 1.113 15129898
0.10920943 -0.1633309 1.113 15780659
0.11210877 -0.1633309 1.113 15916379
0.114686 -0.16365305 1.1130002 15852128
0.11887398 -0.16429734 1.113 15654793
0.13530371 -0.16429734 1.113 14927160
0.10950379 -0.16861641 1.1160001 13677079
0.10950379 -0.16667834 1.1160001 14200862
0.12210155 -0.16667834 1.1160001 14926171
0.12500873 -0.16667834 1.1160001 14597975
0.12791593 -0.16667834 1.1160001 14267743
0.13082311 -0.16667834 1.1160001 14595150
0.088184461 -0.16474018 1.1160001 16050538
0.091091655 -0.16474018 1.1160001 15196994
0.11628721 -0.1628021 1.1160001 16703573
0.11822533 -0.1628021 1.1160001 16703082
0.12145551 -0.16344813 1.1160001 16176750
0.12468572 -0.16409415 1.1160001 14861384
0.12791593 -0.16474018 1.1160001 14265183
0.13082311 -0.16377114 1.1160001 14331733
0.13373028 -0.16377114 1.1160001 14531662
0.067834198 -0.16086395 1.1160001 16645885
0.069772325 -0.16086395 1.1160001 16252668
0.07364855 -0.16086395 1.1160001 15793662
0.12740187 -0.16338561 1.12 14265410
0.071319133 -0.16014384 1.1200001 16383224
0.12156667 -0.16144052 1.12 15451482
0.12448426 -0.16144052 1.12 14466605
0.12740187 -0.16144052 1.12 13669675
0.13031948 -0.16144052 1.12 13804096
