# .PCD v0.7 - Point Cloud Data file format
VERSION 0.7
FIELDS x y z rgba
SIZE 4 4 4 4
TYPE F F F U
COUNT 1 1 1 1
WIDTH 529
HEIGHT 1
VIEWPOINT 0 0 0 1 0 0 0
POINTS 529
DATA ascii
-0.079009652 -0.16855392 1.011 14735576
-0.076376006 -0.16855392 1.011 14472141
-0.067597151 -0.17030972 1.011 3152167
-0.070439205 -0.17257603 1.0140001 7502192
-0.067797743 -0.17257603 1.0140001 5330221
-0.065156274 -0.17257603 1.0140001 5327632
-0.075722128 -0.17081507 1.0140001 13225148
-0.073080659 -0.16993457 1.0140001 10464667
-0.070439205 -0.16993457 1.0140001 5590882
-0.067797743 -0.16905408 1.0140001 988727
-0.064569265 -0.16964108 1.0140002 3484710
-0.075722128 -0.16729313 1.0140001 14346443
-0.073374167 -0.16670613 1.0140002 10723738
-0.070439205 -0.16729313 1.0140001 6771490
-0.067797743 -0.16729313 1.0140001 4662856
-0.072413765 -0.17308661 1.0170001 9672844
-0.063582815 -0.17220353 1.0170001 6768906
-0.06122794 -0.17190918 1.0170001 9398283
-0.060933575 -0.16955423 1.0170001 8748345
-0.072413765 -0.16602185 1.0170001 8815457
-0.070647605 -0.16602185 1.0170001 8545809
-0.067998327 -0.16602185 1.0170001 8352068
-0.064465933 -0.16690496 1.0170001 8085333
-0.061816655 -0.16778807 1.0170001 10327147
-0.060227629 -0.16828303 1.0200001 11706998
-0.061113317 -0.16651161 1.0200001 13284958
-0.076170184 -0.16474022 1.0200001 14344646
-0.073513091 -0.16474022 1.0200001 11178882
-0.069675088 -0.16414975 1.0200002 12365092
-0.067313187 -0.16474022 1.0200001 11580757
-0.064656094 -0.16474022 1.0200001 11975487
-0.05862812 -0.17233118 1.023 11314481
-0.05862812 -0.16966626 1.023 12430674
-0.061293062 -0.16522476 1.023 13220172
-0.05862812 -0.16700134 1.023 14600291
-0.076394223 -0.16344813 1.023 14475717
-0.073729306 -0.16344813 1.023 12297096
-0.071064405 -0.16344813 1.023 13147432
-0.067511164 -0.16344813 1.023 14736216
-0.064846262 -0.16344813 1.023 14339917
-0.061293062 -0.16344813 1.023 13219391
-0.057018258 -0.17194563 1.026 11641690
-0.055236395 -0.17194563 1.026 11839062
-0.057018258 -0.16927293 1.026 13088071
-0.055236395 -0.16927293 1.026 13023825
-0.057612192 -0.16630322 1.026 13879148
-0.055236395 -0.16749108 1.026 13090647
-0.076618254 -0.16214566 1.026 14475971
-0.073945522 -0.16214566 1.026 13085326
-0.070381902 -0.16214566 1.026 14664274
-0.067709148 -0.16214566 1.026 15456603
-0.065036431 -0.16214566 1.026 15193179
-0.061472803 -0.16214566 1.026 13747763
-0.057909153 -0.16303656 1.026 13024292
-0.052768633 -0.17172159 1.0300001 11443538
-0.053066757 -0.1693366 1.0300001 11837023
-0.05545174 -0.16635533 1.0300001 13288542
-0.053663 -0.16635533 1.0300001 12820544
-0.05545174 -0.16367216 1.0300001 12757290
-0.075128213 -0.160989 1.0300001 14071220
-0.073339403 -0.160989 1.0300001 13678975
-0.0706563 -0.160989 1.0300001 15452495
-0.067078754 -0.160989 1.0300001 16177504
-0.064395569 -0.160989 1.0300001 15850345
-0.061414342 -0.16039275 1.0300001 14208346
-0.058134921 -0.160989 1.0300001 10917139
-0.05545174 -0.160989 1.0300001 10778381
-0.073339403 -0.15562269 1.0300001 13552034
-0.0706563 -0.15562269 1.0300001 14203978
-0.050231334 -0.17222175 1.033 8681287
-0.052025352 -0.16863382 1.033 11508562
-0.050231334 -0.1704278 1.033 10129034
-0.052922323 -0.16594285 1.033 12886837
-0.053819299 -0.16325191 1.033 12231728
-0.075347036 -0.1596639 1.033 14140101
-0.073553018 -0.1596639 1.033 13480581
-0.0708621 -0.1596639 1.033 15123532
-0.067274123 -0.1596639 1.033 15849317
-0.06458313 -0.1596639 1.033 15850103
-0.062789187 -0.1596639 1.033 15721586
-0.058304243 -0.1596639 1.033 11902236
-0.05561325 -0.1596639 1.033 10570241
-0.053819299 -0.16145791 1.033 11041816
-0.075347036 -0.15786995 1.033 14209236
-0.073553018 -0.15786995 1.033 13352340
-0.0708621 -0.15786995 1.033 14726731
-0.068171099 -0.15697294 1.033 14991899
-0.06458313 -0.15786995 1.033 15847531
-0.061892211 -0.15786995 1.033 15391844
-0.049477637 -0.17002314 1.036 10391125
-0.052176442 -0.16552517 1.036 13346104
-0.052176442 -0.16372602 1.036 12363582
-0.053076021 -0.16102719 1.036 11110928
-0.066569917 -0.15742883 1.036 15124288
-0.064770691 -0.15652923 1.036 14727519
-0.062071957 -0.15652923 1.036 14663513
-0.058473568 -0.15832844 1.036 12955475
-0.05577476 -0.15832844 1.036 10458169
-0.048718724 -0.16961329 1.039 11769667
-0.049921639 -0.16720745 1.039 12758319
-0.050523091 -0.16329792 1.039 12165945
-0.052327532 -0.16059129 1.039 11040257
-0.058642894 -0.1569825 1.039 13549449
-0.054131903 -0.15878692 1.039 10588453
-0.070371501 -0.15517813 1.039 13613177
-0.067664877 -0.15427592 1.039 13546099
-0.064056069 -0.15427592 1.039 13678941
-0.061349519 -0.15427592 1.039 13942613
-0.067664877 -0.15156932 1.039 13683128
-0.063153885 -0.15156932 1.039 13874804
-0.061349519 -0.15156932 1.039 13351503
-0.048859395 -0.16648382 1.0420001 13412921
-0.048859395 -0.16376942 1.0420001 12494392
-0.052478623 -0.1592454 1.0420001 10785062
-0.050668973 -0.16015019 1.0420001 11768852
-0.055192992 -0.15743577 1.0420001 11963230
-0.05881222 -0.15472136 1.0420001 13876833
-0.056097779 -0.15472136 1.0420001 13089890
-0.064542621 -0.15080056 1.0420001 13876392
-0.061526656 -0.15019734 1.0420001 13352522
-0.05881222 -0.15110216 1.0420001 13148757
-0.061526656 -0.14838776 1.0420001 13419161
-0.05881222 -0.14838776 1.0420001 12953495
-0.056097779 -0.14838776 1.0420001 13220731
-0.046580277 -0.16998784 1.0450001 10916659
-0.047185205 -0.16605574 1.0450001 11772215
-0.047185205 -0.16333351 1.0450001 12163133
-0.049000066 -0.16061127 1.0450001 12624171
-0.047185205 -0.16151866 1.0450001 12099398
-0.054444503 -0.15607424 1.0450001 14134872
-0.052629713 -0.15698163 1.0450001 14400082
-0.054444503 -0.15425941 1.0450001 14601574
-0.055351898 -0.15153719 1.0450001 14467912
-0.052629713 -0.15153719 1.0450001 15716934
-0.054444503 -0.14881498 1.0450001 14464095
-0.043680672 -0.1710825 1.0480001 10193959
-0.04550067 -0.1692625 1.0480001 10192426
-0.043680672 -0.1692625 1.0480001 10124565
-0.04550067 -0.16653246 1.0480001 10521658
-0.043680672 -0.16653246 1.0480001 10715966
-0.04550067 -0.1638024 1.0480001 12098122
-0.043680672 -0.1638024 1.0480001 12688728
-0.041860603 -0.1638024 1.0480001 13346145
-0.046107333 -0.16076903 1.0480001 11773263
-0.043680672 -0.16198236 1.0480001 12297572
-0.050354071 -0.15773565 1.0480001 14010702
-0.052780803 -0.15470225 1.0480001 15652456
-0.050960734 -0.15470225 1.0480001 15260010
-0.050960734 -0.15197223 1.0480001 15455817
-0.052780803 -0.14924221 1.0480001 15714643
-0.050960734 -0.14924221 1.0480001 15258438
-0.042020373 -0.1717355 1.052 9991203
-0.042020373 -0.16899505 1.052 10056991
-0.040193431 -0.16899505 1.052 9860380
-0.042020373 -0.16625459 1.052 11703890
-0.040193431 -0.16625459 1.052 11376472
-0.038366415 -0.16625459 1.052 10983756
-0.042020373 -0.16260061 1.052 12889713
-0.040193431 -0.16351411 1.052 12563828
-0.038366415 -0.16442761 1.052 11970396
-0.042933881 -0.16077366 1.052 12160366
-0.040193431 -0.16077366 1.052 12367194
-0.049328294 -0.15711971 1.052 14470237
-0.04658781 -0.15803319 1.052 12692311
-0.042933881 -0.15894666 1.052 11702899
-0.049328294 -0.15437925 1.052 15060588
-0.037559744 -0.16947699 1.0550001 9794357
-0.036643665 -0.16672871 1.0550001 10779968
-0.037254386 -0.16367504 1.0550001 11507293
-0.040308051 -0.15939994 1.0550001 10514231
-0.037865102 -0.1606214 1.0550001 11041583
-0.043056317 -0.15756777 1.0550001 11311724
-0.040308051 -0.15756777 1.0550001 8616805
-0.046720661 -0.15481949 1.0550001 14072178
-0.043972429 -0.15573557 1.0550001 12888918
-0.049468964 -0.15115513 1.0550001 14927191
-0.04763674 -0.15115513 1.0550001 14729323
-0.0349105 -0.16904019 1.0580001 10847300
-0.0349105 -0.16628411 1.0580001 10453060
-0.0349105 -0.163528 1.0580001 10452548
-0.036747869 -0.15985321 1.0580001 9207041
-0.0349105 -0.16169062 1.0580001 10583100
-0.042260036 -0.15617841 1.0580001 12434037
-0.040422671 -0.15617841 1.0580001 10455956
-0.038585234 -0.15801583 1.0580001 6388026
-0.043178752 -0.15434106 1.0580001 13946214
-0.045934837 -0.15158495 1.0580001 14536539
-0.044097468 -0.15250364 1.0580001 14540643
-0.034088172 -0.17136213 1.0610001 9078601
-0.033166848 -0.16951951 1.0610001 10981194
-0.033166848 -0.16675562 1.0610001 10584129
-0.033166848 -0.16307038 1.0610001 11307835
-0.035009492 -0.16030648 1.0610001 9141044
-0.037773356 -0.15754259 1.0610001 7757876
-0.035009492 -0.15846391 1.0610001 7698467
-0.040537287 -0.15477869 1.0610001 12295299
-0.043301187 -0.15201479 1.0610001 14863950
-0.040537287 -0.15293607 1.0610001 13817971
-0.046065085 -0.14925086 1.0610001 13409859
-0.044222511 -0.14925086 1.0610001 13276417
-0.03141284 -0.16907494 1.064 10979144
-0.029564986 -0.16907494 1.064 10916678
-0.03141284 -0.1663032 1.064 10586937
-0.029564986 -0.1663032 1.064 11045175
-0.03141284 -0.16353147 1.064 12161852
-0.029564986 -0.16353147 1.064 11966525
-0.033260625 -0.16075975 1.064 11044199
-0.03141284 -0.16075975 1.064 13022570
-0.029564986 -0.16075975 1.064 12759661
-0.036956266 -0.15706412 1.064 8735263
-0.033260625 -0.15891196 1.064 10451510
-0.03788016 -0.1542924 1.064 11710302
-0.042499691 -0.15152071 1.064 15451725
-0.040651906 -0.15152071 1.064 15322984
-0.042499691 -0.14967288 1.064 13208623
-0.027821401 -0.16971056 1.0680001 10851390
-0.025039267 -0.16971056 1.0680001 9732923
-0.027821401 -0.16600101 1.0680001 11637809
-0.025039267 -0.16600101 1.0680001 11507256
-0.022257134 -0.16507362 1.0680001 11309906
-0.027821401 -0.1632189 1.0680001 11835723
-0.025039267 -0.1632189 1.0680001 11703363
-0.022257134 -0.1632189 1.0680001 11311152
-0.031530935 -0.15950938 1.0680001 13276996
-0.028439647 -0.16012762 1.0680001 13021532
-0.025966669 -0.16136409 1.0680001 12562534
-0.034313068 -0.1576546 1.0680001 9593099
-0.031530935 -0.1576546 1.0680001 11762975
-0.028748766 -0.1576546 1.0680001 12162626
-0.034622204 -0.15518159 1.0680001 11046976
-0.031530935 -0.15579985 1.0680001 10319652
-0.029676132 -0.15579985 1.0680001 10844701
-0.040804736 -0.15023556 1.0680001 13935198
-0.038949933 -0.15116295 1.0680001 14992223
-0.040804736 -0.14838082 1.0680001 12617580
-0.038949933 -0.14838082 1.0680001 14269797
-0.022319656 -0.17111725 1.0710001 8874305
-0.020459641 -0.17111725 1.0710001 9007161
-0.022319656 -0.1692573 1.0710001 10061133
-0.020459641 -0.1692573 1.0710001 9996609
-0.022319656 -0.16739731 1.0710001 11243343
-0.020459641 -0.16646731 1.0710001 10979391
-0.01952967 -0.16367736 1.0710001 10847785
-0.0247996 -0.16057742 1.0710001 13087305
-0.022319656 -0.16088741 1.0710001 12562199
-0.020459641 -0.16088741 1.0710001 12165408
-0.02789955 -0.1562375 1.0710001 11378741
-0.025109604 -0.15809743 1.0710001 12692050
-0.022319656 -0.15716746 1.0710001 12360752
-0.020459641 -0.15716746 1.0710001 12228413
-0.033479448 -0.15437749 1.0710001 12235347
-0.031619504 -0.15437749 1.0710001 11642922
-0.028829522 -0.15437749 1.0710001 11903760
-0.0371994 -0.15251756 1.0710001 15388000
-0.034409456 -0.15251756 1.0710001 14862691
-0.031619504 -0.15251756 1.0710001 12954683
-0.028829522 -0.15158756 1.0710001 13347367
0.054090217 -0.17159657 1.074 5518648
-0.0186518 -0.16973141 1.074 10063157
-0.016786648 -0.16973141 1.074 10195257
0.054090217 -0.16973141 1.074 10652764
-0.0186518 -0.1669336 1.074 10913839
-0.016786648 -0.16600101 1.074 10715686
-0.014921427 -0.16600101 1.074 10781727
0.054090217 -0.1669336 1.074 16049846
-0.0186518 -0.16227064 1.074 11641377
-0.016786648 -0.16320324 1.074 10981422
-0.014921427 -0.16320324 1.074 11178552
-0.0186518 -0.1604055 1.074 12558129
-0.025179939 -0.15667513 1.074 11967813
-0.0186518 -0.15854029 1.074 12227906
-0.025179939 -0.15480992 1.074 12032056
-0.022382174 -0.15480992 1.074 12359209
-0.020516952 -0.15480992 1.074 12696392
-0.0373036 -0.15107957 1.074 14992473
-0.031708077 -0.15107957 1.074 13807948
-0.025179939 -0.15201217 1.074 12954703
-0.022382174 -0.15201217 1.074 13346907
-0.020516952 -0.15201217 1.074 13808974
-0.0373036 -0.14921442 1.074 14596958
-0.022382174 -0.14921442 1.074 15656039
-0.020516952 -0.14921442 1.074 15580758
0.050547436 -0.17223565 1.0780001 6898736
0.052419536 -0.17223565 1.0780001 6176546
-0.01684917 -0.16849141 1.0780001 10914863
-0.01404095 -0.16942748 1.0780001 10587452
-0.010608699 -0.16911547 1.0780001 10916424
-0.0074885353 -0.16849141 1.0780001 11504682
-0.0046803169 -0.16849141 1.0780001 11506483
-0.0018720982 -0.16849141 1.0780001 11505468
0.00093606691 -0.16849141 1.0780001 11375418
0.029954035 -0.16942748 1.0780001 11639599
0.031826168 -0.16942748 1.0780001 11770684
0.033698268 -0.16942748 1.0780001 11967560
0.050547436 -0.16942748 1.0780001 9600321
0.052419536 -0.16942748 1.0780001 11376713
-0.013104901 -0.16661926 1.0780001 10913315
-0.010296683 -0.16661926 1.0780001 11112739
-0.0074885353 -0.16661926 1.0780001 11243799
0.00093606691 -0.16661926 1.0780001 10848564
0.046803169 -0.16661926 1.0780001 10524781
-0.013104901 -0.16381109 1.0780001 11375671
-0.010296683 -0.16381107 1.0780001 11442742
-0.0018720982 -0.16474715 1.0780001 10654771
-0 -0.16474715 1.0780001 10453559
0.03494636 -0.16412312 1.0780001 12957015
-0.01684917 -0.16006684 1.0780001 12360260
-0.014040951 -0.16006683 1.0780001 13019974
-0.011232732 -0.1610029 1.0780001 13285425
-0.018721268 -0.15725866 1.0780001 11967317
-0.01684917 -0.15725866 1.0780001 11770445
-0.014976999 -0.15725866 1.0780001 12491077
-0.018721268 -0.15445045 1.0780001 12825691
-0.01684917 -0.15538649 1.0780001 12362575
-0.034634352 -0.15164225 1.0780001 14862702
-0.018721268 -0.15164225 1.0780001 13874742
-0.022465535 -0.147898 1.0780001 14534755
-0.019657318 -0.14883408 1.0780001 14205777
0.040362753 -0.17271498 1.0810001 11577925
0.043178733 -0.17271498 1.0810001 11377977
0.045994744 -0.17271498 1.0810001 8944945
0.048810761 -0.17271498 1.0810001 7490110
-0.0093866838 -0.17083767 1.0810001 10129486
-0.0075093755 -0.17083767 1.0810001 10064189
-0.0046933419 -0.17083767 1.0810001 10064439
-0.0018773081 -0.17083767 1.0810001 10063931
0.00093867193 -0.17083767 1.0810001 10262335
0.0046933419 -0.16989899 1.0810001 10851892
0.0075093396 -0.16989899 1.0810001 10786118
0.0093866838 -0.1689603 1.0810001 11113274
0.015018679 -0.16989899 1.0810001 10917954
0.022528054 -0.16989899 1.0810001 11442753
0.025344035 -0.16989899 1.0810001 11508550
0.028160051 -0.16989899 1.0810001 11574075
0.03566939 -0.16989899 1.0810001 12164926
0.037546735 -0.16989899 1.0810001 12167221
0.040362753 -0.16989899 1.0810001 12232773
0.043178733 -0.16989899 1.0810001 12431959
0.045994744 -0.16989899 1.0810001 8882265
0.048810761 -0.16989899 1.0810001 8677178
-0.0075093755 -0.16520564 1.0810001 10981418
-0.0046933419 -0.16614428 1.0810001 11046958
-0.0018773081 -0.16708294 1.0810001 11046717
0.0018773439 -0.16520564 1.0810001 10256931
0.0046933419 -0.16614428 1.0810001 10716949
0.0075093396 -0.16614428 1.0810001 10783283
0.010325355 -0.16614428 1.0810001 10783267
0.013141371 -0.16520564 1.0810001 10520875
0.015957352 -0.1661443 1.0810001 10191659
0.01971204 -0.16520564 1.0810001 10650668
0.022528054 -0.16614428 1.0810001 11373872
0.025344035 -0.16614428 1.0810001 11638324
0.028160051 -0.16614428 1.0810001 11704874
0.030976068 -0.16614428 1.0810001 11834663
0.034730718 -0.16708294 1.0810001 12364593
0.037546735 -0.16708294 1.0810001 12694554
0.040675644 -0.16645718 1.0810001 13154619
0.043178733 -0.16614428 1.0810001 13482846
0.045681857 -0.16583142 1.0810001 12957047
0.049749434 -0.16708294 1.0810001 11898219
0.052565414 -0.16708294 1.0810001 14273706
-0.0075093755 -0.16332828 1.0810001 11969598
-0.0046933419 -0.16332828 1.0810001 11771438
-0.0018773081 -0.16332828 1.0810001 11573546
0.00093867193 -0.16332828 1.0810001 11770918
0.0046933419 -0.16332828 1.0810001 11573015
0.0075093396 -0.16332828 1.0810001 11508768
0.010325355 -0.16332828 1.0810001 11510302
0.015957352 -0.16332828 1.0810001 11511879
0.026282707 -0.16332828 1.0810001 12164921
0.031914741 -0.16332828 1.0810001 12495199
0.033792049 -0.16332828 1.0810001 12956018
-0.010012453 -0.16019939 1.0810001 13219644
-0.0075093755 -0.16051228 1.0810001 12955490
-0.0046933419 -0.16051228 1.0810001 12558918
-0.0018773081 -0.16051228 1.0810001 12425530
0.00093867193 -0.16051228 1.0810001 13085751
0.0046933419 -0.16051228 1.0810001 12492860
0.0075093396 -0.16051228 1.0810001 12164685
0.010325355 -0.16051228 1.0810001 12362558
0.016270243 -0.16082518 1.0810001 13152327
-0.013141371 -0.15769629 1.0810001 13218615
-0.010325338 -0.15769629 1.0810001 13151031
-0.0037546877 -0.15769629 1.0810001 12292425
-0.0018773081 -0.15769629 1.0810001 12228915
0.00093867193 -0.15769629 1.0810001 12889894
0.0046933419 -0.15769629 1.0810001 12036923
0.0075093396 -0.15769629 1.0810001 11897136
0.022528054 -0.15769629 1.0810001 11699030
-0.015644474 -0.15456741 1.0810001 13017913
-0.013141371 -0.15488029 1.0810001 13349424
0.00093867193 -0.15581892 1.0810001 12358671
0.0046933419 -0.15581892 1.0810001 12890414
0.022528054 -0.15488029 1.0810001 13480813
-0.016270269 -0.1514385 1.0810001 13283633
0.022528054 -0.15112561 1.0810001 13483384
-0.018773368 -0.14830959 1.0810001 13020758
-0.01689606 -0.14830959 1.0810001 12096558
0.011305708 -0.17146981 1.085 10393925
0.013189998 -0.17146981 1.085 10459720
0.016958542 -0.17146981 1.085 10722385
0.01978498 -0.17146981 1.085 10984531
0.011305708 -0.1695855 1.085 11178802
0.013189998 -0.1695855 1.085 11244597
0.016958542 -0.1695855 1.085 11311415
0.01978498 -0.1695855 1.085 11508279
0.013189998 -0.1677012 1.085 10849827
0.01978498 -0.1677012 1.085 11045660
0.037685666 -0.16581695 1.085 13154109
0.039569959 -0.16581695 1.085 13351489
0.049933523 -0.16581695 1.085 14007944
0.013189998 -0.16299051 1.085 12560437
0.01978498 -0.16299051 1.085 11707973
0.022611415 -0.16299051 1.085 11836722
0.025123766 -0.16267648 1.085 12296494
0.028264251 -0.16299051 1.085 12624451
0.03077664 -0.16267648 1.085 12757084
0.034859233 -0.16204838 1.085 13678449
0.037685666 -0.16299051 1.085 13941091
0.040512104 -0.16299051 1.085 14467423
0.043338504 -0.16299051 1.085 15255907
0.045850895 -0.16330455 1.085 14866028
0.049933523 -0.16393264 1.085 15000742
0.052759919 -0.16393264 1.085 15855605
0.013189998 -0.16016407 1.085 13088316
0.015074253 -0.16016407 1.085 13153590
0.01978498 -0.16016407 1.085 11704158
0.022611415 -0.16016407 1.085 11898691
0.025437813 -0.16016407 1.085 12820515
0.028264251 -0.16016407 1.085 13748037
0.034859233 -0.16016407 1.085 14598004
0.037685666 -0.16016407 1.085 14731114
0.039569959 -0.16016407 1.085 14806145
-0.010363543 -0.15639549 1.085 13284150
-0.0075371624 -0.15827981 1.085 12759649
-0.0050247507 -0.15702361 1.085 12559185
-0.0018842546 -0.15639549 1.085 11639079
0.0075371265 -0.15639549 1.085 13087492
0.010363562 -0.15733765 1.085 12824132
0.013189998 -0.15827981 1.085 12957250
0.016016398 -0.15733765 1.085 13152834
0.01978498 -0.15733765 1.085 11898979
0.025437813 -0.15733765 1.085 13285708
0.028264251 -0.15733765 1.085 13806180
-0.010363543 -0.15451126 1.085 13414710
-0.0037685812 -0.15451126 1.085 12302183
-0.0018842546 -0.15451126 1.085 11054154
0.0009421453 -0.15451126 1.085 11830069
0.0047107083 -0.15451126 1.085 13742141
0.0075371265 -0.15451126 1.085 14268174
0.010363562 -0.15451126 1.085 14335826
0.016016398 -0.15451126 1.085 13549149
0.01978498 -0.15451126 1.085 13545057
-0.015074253 -0.15074268 1.085 12824604
-0.013189998 -0.15262695 1.085 12758319
-0.0037685812 -0.15262695 1.085 13745025
-0.0018842546 -0.15262695 1.085 13025133
0.0009421453 -0.15168482 1.085 14338908
0.0047107083 -0.15168482 1.085 14273085
0.016330447 -0.15199886 1.085 14335592
0.020099029 -0.15199886 1.085 14401118
0.024495669 -0.15262695 1.085 13083483
-0.015074253 -0.14885837 1.085 12230663
0.013189998 -0.14508982 1.085 13815497
0.015074253 -0.14508982 1.085 14344120
0.031176651 -0.16060692 1.0880001 14076019
0.041568868 -0.16060692 1.0880001 14730904
0.043458335 -0.16060692 1.0880001 14728595
-0.0075580021 -0.15682793 1.0880001 13151828
0.013226468 -0.15682793 1.0880001 13875016
0.030861735 -0.15808761 1.0880001 14924160
0.034955613 -0.15777269 1.0880001 15057777
0.03778987 -0.15777269 1.0880001 14731107
0.040624119 -0.15777269 1.0880001 14402677
0.043458335 -0.15871745 1.0880001 13680799
0.046292581 -0.15871745 1.0880001 15061701
-0.0103922 -0.15304896 1.0880001 13347383
-0.0075580021 -0.15493847 1.0880001 13544278
-0.005668466 -0.15399373 1.0880001 14009445
0.0075579663 -0.15304896 1.0880001 14734872
0.010392218 -0.15304896 1.0880001 15260257
0.013226468 -0.15399373 1.0880001 15127153
0.025823068 -0.15430865 1.0880001 13217610
0.028342402 -0.15399373 1.0880001 11506251
0.030231901 -0.15399373 1.0880001 13277526
0.035900366 -0.15399373 1.0880001 13943966
0.03778987 -0.15399373 1.0880001 13882037
-0.013226468 -0.1511595 1.0880001 12102700
-0.0103922 -0.1511595 1.0880001 13211962
-0.0047237333 -0.1511595 1.0880001 15188029
-0.0018894646 -0.1511595 1.0880001 14993238
0.015115933 -0.1511595 1.0880001 15388994
0.018894935 -0.1511595 1.0880001 14661456
0.02550815 -0.1511595 1.0880001 11771252
0.028342402 -0.1511595 1.0880001 11771518
-0.013226468 -0.14926997 1.0880001 12299306
-0.0103922 -0.14926997 1.0880001 12165693
-0.0075580021 -0.14926997 1.0880001 12427023
-0.0050386442 -0.14864016 1.0880001 12096546
-0.0018894646 -0.14926997 1.0880001 13805888
-0 -0.14926997 1.0880001 13545600
0.0047237333 -0.14926997 1.0880001 12750354
0.013226468 -0.1473805 1.0880001 11238757
0.015745766 -0.14864016 1.0880001 13409836
0.019839685 -0.14926997 1.0880001 14135125
0.032209974 -0.15726037 1.0910001 15389311
-0.0075788423 -0.15347096 1.0910001 14006104
0.032209974 -0.15441833 1.0910001 15055214
0.034104645 -0.15441833 1.0910001 14473095
-0.0075788423 -0.15157628 1.0910001 14468147
0.0075788065 -0.15157628 1.0910001 15187234
0.010420872 -0.15157628 1.0910001 16176182
0.013262938 -0.15157628 1.0910001 16308032
-0.015157613 -0.14778689 1.0910001 11567450
-0.013262938 -0.14778689 1.0910001 12562284
-0.011368191 -0.14778689 1.0910001 11639934
-0.0037894212 -0.14778689 1.0910001 11434333
0.0047367583 -0.14778689 1.0910001 11114094
0.0075788065 -0.14968155 1.0910001 13150509
0.011368227 -0.14968155 1.0910001 13744897
0.013262938 -0.14968155 1.0910001 13743873
0.0019016573 -0.15023035 1.095 13275460
0.0095082503 -0.15023035 1.095 13745943
-0.0095082503 -0.14832872 1.095 10725485
-0.0076066293 -0.14832872 1.095 10451293
-0.0019016211 -0.14832872 1.095 12693886
0.00095082866 -0.14832872 1.095 11644818
0.007606593 -0.14832872 1.095 11179648
0.010459078 -0.14832872 1.095 11312753
