# .PCD v0.7 - Point Cloud Data file format
VERSION 0.7
FIELDS x y z rgba
SIZE 4 4 4 4
TYPE F F F U
COUNT 1 1 1 1
WIDTH 541
HEIGHT 1
VIEWPOINT 0 0 0 1 0 0 0
POINTS 541
DATA ascii
0.13949774 -0.20186147 0.94500005 12031097
0.13457432 -0.2002203 0.94500005 16711418
0.13703603 -0.2002203 0.94500005 15195864
0.1358247 -0.2025023 0.94800007 16710381
0.13829423 -0.2025023 0.94800007 14343611
0.14241016 -0.2025023 0.94800007 10253117
0.14563338 -0.20223717 0.94933337 9206871
0.14008822 -0.20024289 0.94900006 10796457
0.14256036 -0.20024289 0.94900006 10191218
0.1456438 -0.20026028 0.95300007 10518867
0.14807168 -0.2021428 0.95800006 10846291
0.1430805 -0.19964722 0.95800006 10515280
0.14474423 -0.19964722 0.95800006 10060887
0.15103877 -0.20194137 0.96100003 12496978
0.14686641 -0.20027241 0.96100003 10786142
0.15469792 -0.20236164 0.96300006 13225841
0.15804274 -0.20236164 0.96300006 12429157
0.16055137 -0.20236164 0.96300006 12755268
0.1488445 -0.2006892 0.96300006 11510607
0.15135312 -0.2006892 0.96300006 14072132
0.15720654 -0.2006892 0.96300006 13151033
0.15434106 -0.2013144 0.96600002 14339924
0.15601866 -0.2013144 0.96600002 13745478
0.16021273 -0.2013144 0.96600002 12887378
0.16272916 -0.20215324 0.96600002 13677364
0.14595297 -0.19963676 0.96600002 12037691
0.14846936 -0.19963676 0.96600002 12434525
0.15182462 -0.19963676 0.96600002 12231223
0.15434106 -0.19963676 0.96600002 12299575
0.15685746 -0.19963676 0.96600002 12813326
0.16021273 -0.19963676 0.96600002 14468693
0.15769628 -0.19795915 0.96600002 13483342
0.16105154 -0.19795915 0.96600002 16315494
0.16491733 -0.2019396 0.96900004 14075187
0.16660017 -0.2019396 0.96900004 14141232
0.16912442 -0.2019396 0.96900004 14535475
0.14640623 -0.19857395 0.96900004 14008400
0.14893045 -0.19857395 0.96900004 13817445
0.1514547 -0.19857395 0.96900004 11574613
0.15397896 -0.19857395 0.96900004 9801551
0.15650319 -0.19857395 0.96900004 11117645
0.15986885 -0.19857395 0.96900004 15915098
0.16407593 -0.19941536 0.96900004 15853671
0.16660017 -0.19941536 0.96900004 15588673
0.16884395 -0.19969583 0.96900004 15323930
0.15397896 -0.1968911 0.96900004 13225063
0.15734461 -0.19604971 0.96900004 15593614
0.16071028 -0.19604971 0.96900004 16513896
0.16407593 -0.1968911 0.96900004 16578916
0.16660017 -0.1968911 0.96900004 16382568
0.17218009 -0.20256481 0.97200006 14536516
0.17049205 -0.19918872 0.97200006 15520568
0.1730241 -0.20003273 0.97200006 14994766
0.17555617 -0.20003274 0.97200006 15656609
0.17724422 -0.20003274 0.97200006 16449228
0.1468595 -0.19750066 0.97200006 14603109
0.1485475 -0.19750066 0.97200006 14737005
0.15115687 -0.19675738 0.97250009 15260787
0.15445568 -0.19581264 0.97200006 16708469
0.16373989 -0.19581264 0.97200006 16709701
0.16627192 -0.19581264 0.97200006 16708663
0.16964802 -0.19665664 0.97200006 16446801
0.1730241 -0.19665666 0.97200006 15194970
0.17555617 -0.19665664 0.97200006 15715976
0.15223619 -0.19452402 0.97400004 16179582
0.15494889 -0.19382703 0.97333336 16710024
0.15765809 -0.19369391 0.97266674 16645778
0.16001993 -0.19326322 0.97333336 13992071
0.16297923 -0.19337957 0.97250009 15259182
0.16644301 -0.19347855 0.97300005 13942277
0.16982256 -0.19347855 0.97300005 15650845
0.17235723 -0.19347855 0.97300005 15525191
0.17498133 -0.19357842 0.97350007 15188326
0.159848 -0.19114099 0.97400004 12730769
0.16323105 -0.19114099 0.97400004 12730769
0.16661406 -0.19114099 0.97400004 11822409
0.1699971 -0.19114099 0.97400004 12094740
0.17253438 -0.19114099 0.97400004 13278287
0.17507163 -0.19114099 0.97400004 14727542
0.14591822 -0.19681993 0.97700006 14337625
0.14846329 -0.19681993 0.97700006 15390311
0.15100837 -0.19512318 0.97700006 15722101
0.1527051 -0.19342647 0.97700006 16113289
0.15440184 -0.19342647 0.97700006 16710030
0.15440184 -0.19172972 0.97700006 16711323
0.15694691 -0.19172972 0.97700006 12730769
0.14977011 -0.19572233 0.98000002 15392364
0.14977011 -0.19402041 0.98000002 15261299
0.15147206 -0.19316943 0.98000002 15586690
0.153174 -0.19231845 0.98000002 16115348
0.15402496 -0.19061656 0.98000002 16381587
0.15742883 -0.19061656 0.98000002 16709003
0.1608327 -0.19061656 0.98000002 12730769
0.16338561 -0.19061656 0.98000002 8934698
0.1659385 -0.19061656 0.98000002 12730769
0.16934237 -0.19061656 0.98000002 12730769
0.17274624 -0.19061656 0.98000002 11884636
0.17529912 -0.19061656 0.98000002 13481323
0.16338561 -0.1889146 0.98000002 12730769
0.1659385 -0.1889146 0.98000002 9659164
0.16849141 -0.1889146 0.98000002 9456901
0.1502286 -0.19290718 0.98300004 15125370
0.15108219 -0.19120006 0.98300004 15323494
0.15876432 -0.1894929 0.98300004 15915620
0.16047147 -0.1894929 0.98300004 12730769
0.16217862 -0.1894929 0.98300004 12730769
0.17071433 -0.1894929 0.98300004 9386497
0.17242149 -0.1894929 0.98300004 12730769
0.17412864 -0.1894929 0.98300004 12730769
0.16730005 -0.18778579 0.98300004 12730769
0.1690072 -0.18778579 0.98300004 12730769
0.14882366 -0.19672091 0.98500007 15060065
0.15566613 -0.18987845 0.98500007 16711310
0.15737675 -0.18987845 0.98500007 16317069
0.15994266 -0.18816786 0.98500007 14140037
0.16421922 -0.18816786 0.98500007 12730769
0.16678512 -0.18731253 0.98500007 11359334
0.16935106 -0.1864572 0.98500007 12730769
0.17191699 -0.18731253 0.98500007 11418954
0.16935106 -0.18474662 0.98500007 12730769
0.14927694 -0.19560426 0.98800004 14928483
0.14927694 -0.19388841 0.98800004 14731621
0.15270856 -0.19045675 0.98800004 16116067
0.1544244 -0.19045675 0.98800004 16380816
0.17673014 -0.19045675 0.98800004 12730769
0.15699816 -0.18874095 0.98800004 12730769
0.16042979 -0.18702511 0.98800004 14327711
0.16357549 -0.18759707 0.98800009 11893881
0.1664352 -0.18702511 0.98800004 9987402
0.17501433 -0.18874095 0.98800004 12730769
0.16128771 -0.18530931 0.98800004 15788923
0.16471937 -0.18530931 0.98800004 12730769
0.1664352 -0.18530931 0.98800004 10061399
0.16872296 -0.1841654 0.98800009 12079748
0.17244059 -0.18445139 0.98800004 13015433
0.16900893 -0.18101972 0.98800004 13211009
0.17244059 -0.18187764 0.98800004 12730769
0.14800917 -0.19705871 0.99100006 14140244
0.14886969 -0.19361663 0.99100006 14468173
0.15145123 -0.19103506 0.99100006 15523382
0.1540328 -0.18931405 0.99100006 14718833
0.15489331 -0.187593 0.99100006 12730769
0.15747488 -0.187593 0.99100006 12730769
0.16091692 -0.18501145 0.99100006 14717823
0.16349848 -0.18501145 0.99100006 12730769
0.16608006 -0.18415092 0.99100006 12730769
0.16177744 -0.18242991 0.99100006 12730769
0.16608006 -0.18242991 0.99100006 12808032
0.14673096 -0.19851835 0.99400002 13415013
0.14673096 -0.19679214 0.99400002 13351764
0.14845721 -0.19333965 0.99400002 14664765
0.15190969 -0.18988715 0.99400002 15918170
0.15449908 -0.18729778 0.99400002 13661796
0.15795158 -0.18643467 0.99400002 16700244
0.1588147 -0.1847084 0.99400002 12730769
0.16054094 -0.1847084 0.99400002 14991403
0.16054094 -0.18298218 0.99400002 12730769
0.16341802 -0.18183133 0.99400008 12869488
0.16658282 -0.18125589 0.99400002 12746521
0.16313031 -0.17952964 0.99400002 12806501
0.16658282 -0.17952964 0.99400002 12872563
0.14717382 -0.1956546 0.99700004 14009156
0.14890528 -0.19219169 0.99700004 14208298
0.15063675 -0.19219169 0.99700004 14865200
0.15236817 -0.18872876 0.99700004 12730769
0.15409964 -0.18699734 0.99700004 12730769
0.15583111 -0.18526587 0.99700004 12730769
0.15756257 -0.18440014 0.99700004 14334803
0.15929402 -0.18353443 0.99700004 13412147
0.16102546 -0.18180296 0.99700004 12730769
0.14588 -0.19798002 1 13153366
0.14761667 -0.19363835 1 14141000
0.14935334 -0.19016501 1 13606201
0.15109003 -0.19016501 1 14794322
0.15282665 -0.18756002 1 12730769
0.15456334 -0.18495502 1 13667969
0.15630001 -0.1840867 1 15127430
0.1574578 -0.1817711 1 13922173
0.15977335 -0.18234999 1 12730769
0.14631763 -0.2003158 1.003 12301428
0.14573701 -0.19567083 1.003 12956486
0.14631763 -0.1933483 1.003 13748587
0.14631763 -0.19160645 1.003 14016621
0.14805952 -0.1907355 1.003 12564563
0.14922078 -0.18754207 1.003 12934516
0.15154327 -0.18725175 1.003 13733749
0.15328513 -0.1863808 1.003 14670968
0.1498014 -0.18463896 1.003 15780690
0.15154327 -0.18463896 1.003 12730769
0.15328513 -0.18463896 1.003 12730769
0.15444639 -0.18231642 1.003 14986862
0.1567689 -0.18115516 1.003 16113245
0.1611236 -0.18115516 1.003 12730769
0.14500819 -0.19916791 1.006 12958810
0.14500819 -0.1930531 1.006 14798157
0.14675528 -0.19043244 1.006 13948527
0.14675528 -0.18868539 1.006 13880426
0.14850236 -0.18693827 1.006 12730769
0.14850236 -0.18431765 1.006 14455416
0.151123 -0.1834441 1.006 14520956
0.15374361 -0.181697 1.006 12730769
0.14354594 -0.19606274 1.008 12294975
0.14529647 -0.19781327 1.008 12555852
0.14354594 -0.19256163 1.008 14600768
0.14354594 -0.19081104 1.008 14336611
0.14529647 -0.18993577 1.008 14799462
0.14704703 -0.18730992 1.008 12730769
0.14704703 -0.18555939 1.008 15061597
0.15171522 -0.18147472 1.0080001 14988361
0.15404928 -0.18030769 1.008 14998060
0.14397316 -0.1992799 1.011 12957279
0.14221738 -0.19664626 1.011 12428105
0.14280264 -0.19430523 1.011 13281590
0.14280264 -0.19020844 1.011 13810785
0.14397316 -0.18786739 1.011 12730769
0.1457289 -0.18698952 1.011 13601391
0.14748468 -0.18435585 1.011 12730769
0.14924045 -0.18260007 1.011 12730769
0.15099624 -0.18084432 1.011 12730769
0.1426394 -0.19899073 1.0140001 12893019
0.14087841 -0.19634926 1.0140001 12756051
0.14087841 -0.19370782 1.0140001 12755290
0.14029142 -0.19135985 1.0140002 13879139
0.1426394 -0.18754438 1.0140001 12730769
0.14440039 -0.18666391 1.0140001 14267456
0.14616133 -0.1840224 1.0140001 14649456
0.14792232 -0.1831419 1.0140001 12730769
0.14968331 -0.18138094 1.0140001 14670139
0.1514443 -0.17961994 1.0140001 13594179
0.15437925 -0.17903297 1.0140002 12946744
0.14129521 -0.19957946 1.0170001 11776598
0.13776281 -0.1978133 1.0170001 13154114
0.13952902 -0.1969302 1.0170001 12755796
0.13952902 -0.19428092 1.0170001 11968349
0.13952902 -0.19074854 1.0170001 15190368
0.13952902 -0.18898234 1.0170001 14863460
0.14129521 -0.18898234 1.0170001 14340213
0.1448276 -0.18456686 1.0170001 13598300
0.14659375 -0.18191758 1.0170001 12730769
0.14835997 -0.18015136 1.0170001 14669627
0.15012614 -0.18015136 1.0170001 12730769
0.1381692 -0.1966254 1.0200001 12626538
0.1381692 -0.19396831 1.0200001 12625242
0.1381692 -0.19042552 1.0200001 14271315
0.1399406 -0.18776843 1.0200001 12730769
0.141712 -0.18776843 1.0200001 12730769
0.14289294 -0.18540654 1.0200002 13077094
0.1434834 -0.1824542 1.0200001 12730769
0.14525482 -0.18156849 1.0200001 16115001
0.14791191 -0.18156849 1.0200001 14716257
0.13591069 -0.19898035 1.023 12626232
0.13679899 -0.19631541 1.023 12628558
0.13679899 -0.19365048 1.023 12821310
0.13679899 -0.19098559 1.023 13550418
0.13679899 -0.18743238 1.023 13731450
0.13916777 -0.18713628 1.023 13731949
0.13946387 -0.18476743 1.023 13203055
0.14212881 -0.18476743 1.023 12730769
0.14035219 -0.18299083 1.023 15062847
0.14272103 -0.18180643 1.023 16049226
0.13541833 -0.19689113 1.026 12694841
0.1336365 -0.19421838 1.026 13414429
0.13541833 -0.19332749 1.026 13154614
0.13541833 -0.1870911 1.026 12730769
0.13660622 -0.18471533 1.026 13933932
0.13898195 -0.18352747 1.026 14930491
0.13987286 -0.18174563 1.026 12730769
0.14076377 -0.17996383 1.026 12730769
0.1425456 -0.17996383 1.026 15652469
0.14551532 -0.1793699 1.026 13600306
0.14878196 -0.17996383 1.026 13270601
0.1514547 -0.17996383 1.026 13090627
0.15412745 -0.17996383 1.026 13085796
0.14610925 -0.1764002 1.026 12730769
0.13326311 -0.1985531 1.0300001 11776057
0.13326311 -0.19676435 1.0300001 13282600
0.132965 -0.19378307 1.0300001 12822552
0.13415751 -0.19050366 1.0300001 14864190
0.13594627 -0.19050366 1.0300001 14603368
0.13594627 -0.18424298 1.0300001 14665557
0.13773505 -0.18155982 1.0300001 12730769
0.13952379 -0.18066545 1.0300001 12730769
0.13952379 -0.17887665 1.0300001 13931556
0.14220695 -0.17798229 1.0300001 14066271
0.14489011 -0.17798229 1.0300001 12730769
0.14846763 -0.17798229 1.0300001 12540510
0.15115079 -0.17887665 1.0300001 13134963
0.13096029 -0.1991314 1.033 10527263
0.13006331 -0.19644046 1.033 12034866
0.13006331 -0.1937495 1.033 11639858
0.13096029 -0.19105852 1.033 14005544
0.13275427 -0.19105852 1.033 14403349
0.13096029 -0.18836756 1.033 14402631
0.13395026 -0.18776956 1.033 14065248
0.13634223 -0.1829856 1.033 12730769
0.12594306 -0.19611135 1.036 11639369
0.12774226 -0.19701096 1.036 11308096
0.12594306 -0.19341257 1.036 12365587
0.12774226 -0.19341257 1.036 11637542
0.12954147 -0.19251297 1.036 12558899
0.12774226 -0.19071381 1.036 12232495
0.12954147 -0.19071381 1.036 13478725
0.12774226 -0.18891461 1.036 13022277
0.13014118 -0.18771514 1.036 13404519
0.1331398 -0.1871154 1.036 12730769
0.134939 -0.18531623 1.036 12730769
0.1367382 -0.18171786 1.036 14400069
0.12450337 -0.19848365 1.039 10718017
0.12630777 -0.19848365 1.039 10977349
0.12450337 -0.19667923 1.039 11968588
0.12269896 -0.19487487 1.039 13217582
0.12450337 -0.19397265 1.039 13086232
0.12450337 -0.19036385 1.039 13285676
0.12630777 -0.19036385 1.039 12955942
0.12450337 -0.18765724 1.039 12730769
0.12720996 -0.18765724 1.039 12730769
0.12720996 -0.18585287 1.039 12730769
0.1311195 -0.1852514 1.039 13668444
0.13352536 -0.18495065 1.039 13532520
0.13532975 -0.18404844 1.039 12730769
0.13352536 -0.18224408 1.039 12730769
0.13623196 -0.18134187 1.039 13663335
0.13893856 -0.18043967 1.039 12632636
0.12305325 -0.19724713 1.0420001 11969360
0.12305325 -0.19362791 1.0420001 12955149
0.12305325 -0.19091353 1.0420001 13219892
0.12395805 -0.18729427 1.0420001 13665138
0.12757728 -0.18457986 1.0420001 14070331
0.1302917 -0.18457986 1.0420001 14138941
0.12486286 -0.18277028 1.0420001 14005576
0.12787887 -0.18216708 1.0420001 13067383
0.1302917 -0.18186547 1.0420001 14138176
0.13210128 -0.18277028 1.0420001 12730769
0.12159273 -0.19600022 1.0450001 13215291
0.12159273 -0.19327798 1.0450001 12756780
0.12159273 -0.19055575 1.0450001 13614137
0.12159273 -0.18783352 1.0450001 14536259
0.12340752 -0.18692613 1.0450001 14535799
0.12159273 -0.1832965 1.0450001 13408550
0.12401246 -0.18450636 1.0450001 13199994
0.12431493 -0.18148166 1.0450001 13480523
0.12703717 -0.18148166 1.0450001 13803068
0.13338901 -0.18148166 1.0450001 14532929
0.13611126 -0.18148166 1.0450001 12730769
0.12159273 -0.17966686 1.0450001 12730769
0.12340752 -0.17966686 1.0450001 12730769
0.12794459 -0.17966686 1.0450001 13796706
0.13066682 -0.17966686 1.0450001 15394659
0.1324816 -0.17966686 1.0450001 12730769
0.13792607 -0.17966686 1.0450001 12730769
0.11284167 -0.1983829 1.0480001 10460224
0.11557169 -0.1983829 1.0480001 11378755
0.11830174 -0.1983829 1.0480001 11773768
0.12103178 -0.1983829 1.0480001 11904589
0.11284167 -0.1965629 1.0480001 12096829
0.11557169 -0.1965629 1.0480001 12887107
0.11830174 -0.1965629 1.0480001 13084231
0.12012177 -0.1965629 1.0480001 13153352
0.11526835 -0.19413619 1.0480001 12165439
0.11830174 -0.19383286 1.0480001 12493122
0.12012177 -0.19383286 1.0480001 12559166
0.11466167 -0.19019279 1.0480001 13804588
0.11830174 -0.19019279 1.0480001 14008891
0.12012177 -0.19019279 1.0480001 14074666
0.11830174 -0.18746276 1.0480001 12730769
0.12012177 -0.18746276 1.0480001 12730769
0.1164817 -0.18382271 1.0480001 12029697
0.11830174 -0.18473271 1.0480001 13605137
0.12072845 -0.18503605 1.0480001 13199218
0.1164817 -0.18018265 1.0480001 12730769
0.11830174 -0.18109265 1.0480001 13612108
0.12072845 -0.18139599 1.0480001 12681561
0.12558185 -0.18018265 1.0480001 12730769
0.13468197 -0.18018265 1.0480001 12730769
0.13650201 -0.18018265 1.0480001 15790678
0.14014207 -0.18018265 1.0480001 12730769
0.14196207 -0.18018265 1.0480001 13734727
0.11830174 -0.17836261 1.0480001 16709474
0.12103178 -0.17836261 1.0480001 16114791
0.12467182 -0.17836261 1.0480001 15386452
0.12740187 -0.17836261 1.0480001 15983433
0.13013193 -0.17836261 1.0480001 16706643
0.13377196 -0.17836261 1.0480001 16707141
0.12103178 -0.17654261 1.0480001 12730769
0.1237618 -0.17654261 1.0480001 15786330
0.10718244 -0.19670415 1.052 8942148
0.1096184 -0.19639966 1.052 10191438
0.11205439 -0.19609515 1.052 11572289
0.10779142 -0.1936592 1.052 12032049
0.1096184 -0.1936592 1.052 11834179
0.11235888 -0.1936592 1.052 11637290
0.11692629 -0.1936592 1.052 12032581
0.1096184 -0.19091871 1.052 12031549
0.11235888 -0.19091871 1.052 12294423
0.11692629 -0.19091871 1.052 13875789
0.11266338 -0.18756926 1.052 12346469
0.1160128 -0.18726477 1.052 12869500
0.11327237 -0.18452431 1.052 12730769
0.11509931 -0.18452431 1.052 10828545
0.11327237 -0.18178385 1.052 12730769
0.11570831 -0.18208835 1.052 12730769
0.11327237 -0.17904337 1.052 12730769
0.1160128 -0.1781299 1.052 13331842
0.11875327 -0.17721644 1.052 14984799
0.12788814 -0.17721644 1.052 15854432
0.13062862 -0.17721644 1.052 14389358
0.13336904 -0.17721644 1.052 12730769
0.1160128 -0.17538942 1.052 12730769
0.10443447 -0.19695973 1.0550001 10781258
0.10626663 -0.19604363 1.0550001 10583609
0.10382374 -0.19360074 1.0550001 12299829
0.10626663 -0.19329536 1.0550001 12297235
0.10809881 -0.19237925 1.0550001 12166178
0.10443447 -0.19054705 1.0550001 14138935
0.10809881 -0.19054705 1.0550001 12299063
0.10443447 -0.18871489 1.0550001 14341962
0.10901491 -0.18779878 1.0550001 12285546
0.11176319 -0.18688269 1.0550001 12730769
0.10809881 -0.18505053 1.0550001 12730769
0.11176319 -0.18413442 1.0550001 10113097
0.11359538 -0.1777218 1.0550001 12730769
0.11359538 -0.1758896 1.0550001 12730769
0.094625771 -0.19660108 1.0580001 9272375
0.09738183 -0.19660108 1.0580001 10060592
0.10013793 -0.19660108 1.0580001 11965224
0.10289404 -0.19660108 1.0580001 11910220
0.094625771 -0.193845 1.0580001 11309117
0.09738183 -0.193845 1.0580001 11242271
0.10013793 -0.19384502 1.0580001 12032791
0.10289404 -0.1929263 1.0580001 12956227
0.094932005 -0.19047642 1.0580001 11770451
0.09738183 -0.1901702 1.0580001 12166483
0.10013793 -0.1901702 1.0580001 13480269
0.10289404 -0.1901702 1.0580001 14075962
0.1065688 -0.1901702 1.0580001 13290056
0.095544472 -0.18741409 1.0580001 12730769
0.09738183 -0.18741409 1.0580001 12429156
0.10013793 -0.18741409 1.0580001 13335661
0.10381274 -0.18741409 1.0580001 12730769
0.1065688 -0.18741409 1.0580001 13682506
0.10105664 -0.18465805 1.0580001 13675082
0.10350651 -0.18496428 1.0580001 12730769
0.1065688 -0.18465805 1.0580001 11766603
0.10963114 -0.1843518 1.0580001 11422326
0.10105664 -0.18006454 1.0580001 12730769
0.10289404 -0.18006454 1.0580001 15846252
0.1102436 -0.18098325 1.0580001 12744585
0.11208101 -0.18098325 1.0580001 12218756
0.11208101 -0.17822717 1.0580001 16318063
0.1102436 -0.17638975 1.0580001 12730769
0.11208101 -0.17638975 1.0580001 15984249
0.088444948 -0.19531599 1.0610001 12957261
0.09120886 -0.19623727 1.0610001 11311412
0.088444948 -0.19347335 1.0610001 13678897
0.09120886 -0.19347335 1.0610001 12889944
0.061727203 -0.19070946 1.0610001 14016988
0.064491116 -0.19163074 1.0610001 6382703
0.088444948 -0.19163074 1.0610001 14405963
0.09120886 -0.19070946 1.0610001 13416027
0.09397278 -0.18978816 1.0610001 11971163
0.091515958 -0.18733132 1.0610001 13809495
0.094586991 -0.18671714 1.0610001 12730769
0.097657964 -0.18610294 1.0610001 12730769
0.099500574 -0.18610294 1.0610001 12730769
0.092130169 -0.18426032 1.0610001 14072425
0.094894081 -0.18426032 1.0610001 14140534
0.097657964 -0.18426032 1.0610001 13942635
0.099500574 -0.18426032 1.0610001 12730769
0.10502841 -0.18426032 1.0610001 12730769
0.094586983 -0.18118934 1.0610001 14056328
0.097657964 -0.18057512 1.0610001 15393402
0.10011478 -0.18180355 1.0610001 13801844
0.1031858 -0.18241775 1.0610001 14208868
0.10594969 -0.18149644 1.0610001 14333830
0.10871359 -0.18149644 1.0610001 13270666
0.1031858 -0.17873254 1.0610001 16116596
0.1059497 -0.17873254 1.0610001 16509579
0.10963489 -0.17873254 1.0610001 16579206
0.076684266 -0.19586825 1.064 13679159
0.079455957 -0.19586825 1.064 13678900
0.082227692 -0.19586825 1.064 13810223
0.085923329 -0.19586825 1.064 13285407
0.066521287 -0.19217257 1.064 7963905
0.073912531 -0.19217257 1.064 14206244
0.076992236 -0.19278853 1.064 13876253
0.079455957 -0.19309649 1.064 12890401
0.082227692 -0.19309649 1.064 13086758
0.085923329 -0.19309649 1.064 14138150
0.064673468 -0.19032478 1.064 6964579
0.066521287 -0.19032478 1.064 9735681
0.073912531 -0.19032478 1.064 15258440
0.076684266 -0.19032478 1.064 15061569
0.079455957 -0.19032478 1.064 13616160
0.082227692 -0.19032478 1.064 13878292
0.085923329 -0.19032478 1.064 14995795
0.088695027 -0.19032478 1.064 14734694
0.06282565 -0.18847694 1.064 11701975
0.064673468 -0.18847694 1.064 7574405
0.066521287 -0.18847694 1.064 11442227
0.077608176 -0.18847694 1.064 15588945
0.079455957 -0.18847694 1.064 14531636
0.082535669 -0.18786101 1.064 14531364
0.085923329 -0.18755305 1.064 14125161
0.088695027 -0.18755305 1.064 14338378
0.090542853 -0.18662916 1.064 12730769
0.085923329 -0.18478131 1.064 11369522
0.088695027 -0.18478131 1.064 12484129
0.090542853 -0.18478131 1.064 13943621
0.083151601 -0.18108571 1.064 11372078
0.086231306 -0.18170166 1.064 12730769
0.088695027 -0.18200962 1.064 14201633
0.091466755 -0.18200962 1.064 13395083
0.097010203 -0.18293354 1.064 13664387
0.073263019 -0.19660459 1.0680001 14010467
0.063989215 -0.19474982 1.0680001 12564408
0.068007879 -0.19413155 1.0680001 11112472
0.070480868 -0.19382241 1.0680001 12425032
0.072953895 -0.19413155 1.0680001 14007070
0.07604517 -0.19474982 1.0680001 14140423
0.068626136 -0.1901129 1.0680001 13938964
0.070480868 -0.1901129 1.0680001 14667790
0.072953895 -0.18980378 1.0680001 15719717
0.07604517 -0.18918552 1.0680001 16703806
0.067698747 -0.18733077 1.0680001 12730769
0.074190401 -0.18733077 1.0680001 15391245
0.076972552 -0.18733077 1.0680001 12730769
0.079754665 -0.18733077 1.0680001 13284424
0.081609435 -0.18733077 1.0680001 12730769
0.074190401 -0.18547599 1.0680001 14532153
0.076972552 -0.18547599 1.0680001 13937206
0.082536817 -0.18454863 1.0680001 12224828
0.085318968 -0.18362126 1.0680001 12730769
0.085318968 -0.17991173 1.0680001 13745670
0.088101104 -0.17991173 1.0680001 14732644
0.09088324 -0.17991173 1.0680001 16645737
0.070678852 -0.18785699 1.0710001 15059458
0.072538823 -0.18785699 1.0710001 12730769
0.070678852 -0.18599699 1.0710001 14468146
0.073468812 -0.18506703 1.0710001 14796878
0.076258779 -0.18413705 1.0710001 12730769
0.079358719 -0.18475704 1.0710001 12090174
