# .PCD v0.7 - Point Cloud Data file format
VERSION 0.7
FIELDS x y z rgba
SIZE 4 4 4 4
TYPE F F F U
COUNT 1 1 1 1
WIDTH 567
HEIGHT 1
VIEWPOINT 0 0 0 1 0 0 0
POINTS 567
DATA ascii
0.16069376 -0.19283253 0.97400004 9797173
0.16034037 -0.19512318 0.97700006 9665312
0.16288544 -0.19512318 0.97700006 9272927
0.15779527 -0.19342647 0.97700006 8606508
0.159492 -0.19342647 0.97700006 9206299
0.16288544 -0.19342647 0.97700006 9797199
0.16034037 -0.19172972 0.97700006 10520879
0.16288544 -0.19172972 0.97700006 11175999
0.16508755 -0.19316943 0.98000002 10914625
0.16730005 -0.19461437 0.98300004 11376445
0.16935106 -0.1950103 0.98500007 12953418
0.16764042 -0.19329968 0.98500007 12694332
0.16471937 -0.1921726 0.98800004 12554039
0.1664352 -0.1921726 0.98800004 14128701
0.16929489 -0.19274454 0.98800009 13683519
0.17158267 -0.19303051 0.98800004 13089339
0.17382471 -0.19361663 0.99100006 12628801
0.17554575 -0.19447714 0.99100006 12692791
0.16694057 -0.19103506 0.99100006 11836989
0.16952211 -0.19103506 0.99100006 13073721
0.17210367 -0.19103506 0.99100006 14076673
0.16399343 -0.19333965 0.99400002 11043143
0.17607717 -0.19333965 0.99400002 13283417
0.1778034 -0.19333965 0.99400002 13747801
0.16658282 -0.19075027 0.99400002 10387002
0.17003527 -0.18988715 0.99400002 12292410
0.17262468 -0.18988715 0.99400002 14801718
0.17492634 -0.19103798 0.99400008 15193689
0.17003527 -0.18816088 0.99400002 14478396
0.17262468 -0.18816088 0.99400002 15726444
0.16333407 -0.19276886 0.9970001 11706214
0.17834003 -0.19219169 0.99700004 14732378
0.16448838 -0.19046026 0.99700004 10330721
0.16621986 -0.19046026 0.99700004 9924942
0.17660861 -0.19046026 0.99700004 16051315
0.17834003 -0.19046026 0.99700004 15720285
0.16795132 -0.18872876 0.99700004 13160012
0.16968274 -0.18699734 0.99700004 16711273
0.17227994 -0.18699734 0.99700004 16711279
0.17574286 -0.18786305 0.99700004 16578136
0.16150999 -0.19277 1 14142579
0.18061334 -0.19363835 1 14996297
0.16150999 -0.19016501 1 15060836
0.16382557 -0.18987557 1 13356652
0.16672 -0.18929668 1 13226093
0.17887665 -0.18929668 1 16183904
0.18148167 -0.19016501 1 15720561
0.18495502 -0.19016501 1 16448226
0.16411501 -0.18756002 1 16113249
0.16672 -0.18756002 1 16445317
0.16845669 -0.18756002 1 16709239
0.17887665 -0.18756002 1 16707924
0.18148166 -0.18756002 1 16248458
0.18495502 -0.18756002 1 16513760
0.18755999 -0.18756002 1 16711422
0.16498335 -0.18495502 1 16579702
0.16672 -0.18582334 1 16579998
0.16932499 -0.18495502 1 16711319
0.1725089 -0.18524447 1 16512121
0.17540334 -0.18582334 1 15594814
0.17714003 -0.18582334 1 15788547
0.18234999 -0.18495502 1 16381617
0.18408668 -0.18495502 1 16512223
0.16025268 -0.1933483 1.003 14143075
0.18289706 -0.1933483 1.003 15658125
0.18463895 -0.1933483 1.003 16186082
0.18638082 -0.1933483 1.003 16711408
0.15851079 -0.1907355 1.003 14799689
0.16025268 -0.1907355 1.003 14930010
0.1611236 -0.18725175 1.003 15390810
0.16373642 -0.1863808 1.003 15916612
0.17941329 -0.1863808 1.003 16047943
0.18115517 -0.1863808 1.003 16180108
0.16199452 -0.18463896 1.003 15130974
0.16373642 -0.18463896 1.003 15917913
0.16722018 -0.18463896 1.003 16711328
0.17505862 -0.18463896 1.003 15057458
0.17854238 -0.18463896 1.003 15116576
0.18115517 -0.18463896 1.003 15916156
0.16199452 -0.18289706 1.003 15918698
0.16373642 -0.18202612 1.003 16513132
0.16634923 -0.18202612 1.003 16383630
0.16983299 -0.18289706 1.003 15000947
0.17244579 -0.18289706 1.003 12556856
0.17418768 -0.18289706 1.003 11965198
0.1589849 -0.19392662 1.006 14143820
0.1589849 -0.18781182 1.006 14933069
0.16073199 -0.18431765 1.006 15522404
0.17645575 -0.1834441 1.006 11373831
0.17907637 -0.1834441 1.006 12552988
0.16247906 -0.181697 1.006 16706156
0.16946743 -0.181697 1.006 14991726
0.17208803 -0.181697 1.006 10055484
0.17470868 -0.181697 1.006 8348425
0.16335261 -0.17994992 1.006 16708202
0.16684678 -0.17994992 1.006 15723895
0.16946743 -0.17994992 1.006 12944474
0.17208803 -0.17994992 1.006 9660459
0.15755041 -0.19256163 1.008 14339639
0.15755041 -0.18993577 1.008 14009657
0.15755041 -0.18730992 1.008 14337342
0.15755041 -0.1846841 1.008 14928963
0.15930097 -0.1846841 1.008 15585363
0.16105154 -0.18205822 1.008 15846767
0.17622304 -0.1808912 1.0080001 7749380
0.17855714 -0.18118295 1.008 9852161
0.18030767 -0.18205822 1.008 10587472
0.16455263 -0.17855711 1.008 16706659
0.1663032 -0.17855711 1.008 16711296
0.16892906 -0.17855711 1.008 12364939
0.17243016 -0.17855711 1.008 9266752
0.16805376 -0.175056 1.008 14866038
0.15626353 -0.19313473 1.011 13873972
0.15626353 -0.19050106 1.011 13349707
0.15626353 -0.18698952 1.011 13682246
0.1580193 -0.18260007 1.011 15325803
0.16036034 -0.18142956 1.011 15721848
0.16153087 -0.17908852 1.011 16707690
0.1632866 -0.17908852 1.011 16707174
0.16679814 -0.17733279 1.011 16711310
0.16943184 -0.17733279 1.011 13156778
0.17294334 -0.17733279 1.011 8216405
0.175577 -0.17821065 1.011 8147202
0.17733279 -0.17821065 1.011 3305582
0.17030972 -0.17557698 1.011 13018712
0.17294334 -0.17557698 1.011 7301439
0.17030972 -0.17294335 1.011 5999232
0.17206545 -0.17294335 1.011 490408
0.15437925 -0.19135985 1.0140002 13088857
0.15437925 -0.18783788 1.0140002 13678926
0.15496622 -0.18490291 1.0140001 14270799
0.15672721 -0.1840224 1.0140001 15187288
0.1576077 -0.18138094 1.0140001 15785098
0.1602492 -0.17961994 1.0140001 16705114
0.16553211 -0.17785899 1.0140001 16711264
0.1672931 -0.17609799 1.0140001 16700511
0.15365854 -0.19074854 1.0170001 13481555
0.15189235 -0.18809925 1.0170001 13018449
0.15365854 -0.18721616 1.0170001 13876811
0.15454161 -0.18456686 1.0170001 14206546
0.1554247 -0.18191758 1.0170001 14462835
0.15807399 -0.18015136 1.0170001 16112208
0.1607233 -0.1783852 1.0170001 14463535
0.16337258 -0.1783852 1.0170001 16115805
0.15234041 -0.1930826 1.0200001 11713092
0.15145472 -0.19042552 1.0200001 13021260
0.15056901 -0.18776843 1.0200001 11903296
0.15234041 -0.18511128 1.0200001 13680198
0.15411182 -0.18422557 1.0200001 13745754
0.15470228 -0.18127327 1.0200002 13342826
0.16474019 -0.17714 1.0200001 16696398
0.16651161 -0.17714 1.0200001 16700232
0.16651161 -0.17536862 1.0200001 490408
0.16916871 -0.17536862 1.0200001 7444844
0.17005441 -0.17359719 1.0200001 490408
0.14864305 -0.19068949 1.023 12891445
0.15101185 -0.19187391 1.023 13416761
0.14864305 -0.18772849 1.023 12429363
0.15101185 -0.18654406 1.023 13023542
0.15101185 -0.18476743 1.023 14203982
0.15190017 -0.18210253 1.023 13743975
0.15722999 -0.17943762 1.023 15319366
0.1604871 -0.1782532 1.023 13944371
0.16344814 -0.17766099 1.023 14464340
0.16167152 -0.17588441 1.023 13285744
0.16344814 -0.17588441 1.023 14134604
0.16581693 -0.17469999 1.023 5278084
0.16877796 -0.17410776 1.023 12230452
0.16877796 -0.17233118 1.023 13131831
0.14610925 -0.19243659 1.026 12499542
0.14789104 -0.19243659 1.026 13285692
0.14610925 -0.19065475 1.026 12498250
0.14610925 -0.18798202 1.026 12625441
0.14789104 -0.1870911 1.026 12886563
0.14551532 -0.18412142 1.026 13286200
0.14878196 -0.18441837 1.026 14074444
0.14521834 -0.18174563 1.026 14271821
0.14878196 -0.18174563 1.026 15193696
0.14878196 -0.17996383 1.026 15190633
0.1514547 -0.17907292 1.026 14602341
0.15412745 -0.17907292 1.026 13082467
0.15769106 -0.17818199 1.026 15581284
0.15501836 -0.17550927 1.026 14931566
0.15769106 -0.17550927 1.026 16180079
0.16036381 -0.17550927 1.026 15261070
0.16303656 -0.17461835 1.026 490408
0.15769106 -0.17283656 1.026 8042337
0.16036381 -0.17194563 1.026 14601309
0.16303656 -0.17194563 1.026 3968148
0.16660017 -0.17194563 1.026 3179161
0.16214564 -0.16927293 1.026 490408
0.14489011 -0.19050366 1.0300001 12562237
0.14489011 -0.18692611 1.0300001 12493362
0.14310133 -0.18424298 1.0300001 13088579
0.14310133 -0.18155982 1.0300001 13811018
0.1457845 -0.18066545 1.0300001 13677146
0.14608262 -0.17828041 1.0300001 13678646
0.14846763 -0.17798229 1.0300001 15455813
0.15085267 -0.17768417 1.0300001 15522658
0.15383394 -0.17708792 1.0300001 14930299
0.14667888 -0.17529912 1.0300001 15651646
0.14846763 -0.17529912 1.0300001 16177997
0.15115079 -0.17529912 1.0300001 16572514
0.15383394 -0.17529912 1.0300001 16182132
0.15502647 -0.17291413 1.0300001 5543302
0.15741146 -0.17172159 1.0300001 14986765
0.15920024 -0.17172159 1.0300001 14203174
0.15562272 -0.16993286 1.0300001 490408
0.14351813 -0.19105852 1.033 12366141
0.14262114 -0.18747056 1.033 12559428
0.13993017 -0.18477961 1.033 12890174
0.14172415 -0.18477961 1.033 13085248
0.13993017 -0.18208863 1.033 13810786
0.14172415 -0.18208863 1.033 14141270
0.14262114 -0.17939766 1.033 14530906
0.14531213 -0.17760371 1.033 13809470
0.14531213 -0.1758097 1.033 15122251
0.14890005 -0.17401576 1.033 15920480
0.15159103 -0.17401576 1.033 8564103
0.15248801 -0.17222175 1.033 16702291
0.154282 -0.17222175 1.033 16246903
0.154282 -0.16863382 1.033 490408
0.15727195 -0.16923182 1.033 8426070
0.16056091 -0.16953081 1.033 7116403
0.154282 -0.16683985 1.033 13476241
0.15697296 -0.16683985 1.033 490408
0.16056091 -0.16683985 1.033 14613736
0.14033656 -0.19071381 1.036 13020465
0.14213575 -0.19071381 1.036 13479737
0.13973683 -0.18771514 1.036 12494399
0.13853739 -0.18441662 1.036 12817995
0.13853739 -0.18171786 1.036 14014056
0.14033656 -0.17991865 1.036 15120742
0.14303535 -0.1781195 1.036 13875808
0.14393495 -0.17632028 1.036 13871960
0.14753333 -0.17452113 1.036 490408
0.14933248 -0.17272192 1.036 15719990
0.15113167 -0.17272192 1.036 16174640
0.14933248 -0.17092276 1.036 13804556
0.15233114 -0.17032301 1.036 8755310
0.15473007 -0.17092276 1.036 490408
0.15293087 -0.16732438 1.036 12944776
0.13713416 -0.18946165 1.039 12496729
0.13893856 -0.19036385 1.039 12497221
0.13713416 -0.18765724 1.039 12758864
0.13713416 -0.18495065 1.039 12688718
0.13653269 -0.18164262 1.039 13741666
0.13893856 -0.18043967 1.039 15054946
0.14074293 -0.1786353 1.039 14006366
0.14254734 -0.17683086 1.039 12693830
0.14525393 -0.17502649 1.039 7775355
0.14435174 -0.17322206 1.039 490408
0.14796054 -0.17231989 1.039 8303729
0.14976491 -0.16961329 1.039 11965992
0.15156931 -0.16961329 1.039 490408
0.14976491 -0.16780892 1.039 12749124
0.15156931 -0.16780892 1.039 12879744
0.13572051 -0.1900087 1.0420001 12497205
0.13391089 -0.18819907 1.0420001 13020705
0.13572051 -0.18729427 1.0420001 12888634
0.13572051 -0.18096066 1.0420001 14010709
0.13933973 -0.17915107 1.0420001 14137437
0.14114931 -0.17734145 1.0420001 12957748
0.14295892 -0.17553186 1.0420001 14328364
0.14295892 -0.17372224 1.0420001 490408
0.14597493 -0.17251585 1.0420001 10863962
0.14567333 -0.16919823 1.0420001 7114088
0.14838776 -0.16919823 1.0420001 490408
0.12885199 -0.19055575 1.0450001 10529592
0.13066682 -0.19055575 1.0450001 10987076
0.13338901 -0.19055575 1.0450001 11642141
0.12824707 -0.18753105 1.0450001 12494646
0.13066682 -0.18783352 1.0450001 12693571
0.13308655 -0.18753105 1.0450001 12693044
0.12794459 -0.18420389 1.0450001 12492324
0.13338901 -0.18420389 1.0450001 12889939
0.13611126 -0.18511128 1.0450001 12429904
0.13429642 -0.18148166 1.0450001 14539340
0.13732114 -0.17906193 1.0450001 13678421
0.1397409 -0.17785203 1.0450001 13220681
0.14155568 -0.17512982 1.0450001 7380825
0.1424631 -0.1724076 1.0450001 7908754
0.14337052 -0.16968536 1.0450001 7185006
0.12497517 -0.18988943 1.0480001 11048981
0.12740187 -0.19019279 1.0480001 11248686
0.12467182 -0.18746276 1.0480001 11901724
0.12133512 -0.18442938 1.0480001 11901972
0.12467183 -0.18473271 1.0480001 12032542
0.13104194 -0.18473271 1.0480001 12756803
0.12740187 -0.18109265 1.0480001 14137182
0.13013193 -0.18109265 1.0480001 14798415
0.13346861 -0.18078932 1.0480001 14734910
0.13104194 -0.17836261 1.0480001 14730835
0.13377196 -0.17836261 1.0480001 14406454
0.13650201 -0.17836261 1.0480001 13615941
0.13468197 -0.17563258 1.0480001 15259426
0.13650201 -0.17563258 1.0480001 14861381
0.13923205 -0.1756326 1.0480001 14861656
0.13468197 -0.17290255 1.0480001 490408
0.13650201 -0.17199253 1.0480001 490408
0.13923205 -0.17199254 1.0480001 490408
0.14196207 -0.1710825 1.0480001 490408
0.14196207 -0.1692625 1.0480001 12891393
0.14378211 -0.16744246 1.0480001 490408
0.12240724 -0.19000521 1.052 10455832
0.11875327 -0.18726477 1.052 12098874
0.12118925 -0.18756926 1.052 11574576
0.11875327 -0.18452431 1.052 12756752
0.11875327 -0.18269733 1.052 12887337
0.12149374 -0.18178385 1.052 12233275
0.12423418 -0.18178385 1.052 12691280
0.12606116 -0.18178385 1.052 13546583
0.12423418 -0.17904337 1.052 13739870
0.12727915 -0.1784344 1.052 13940526
0.13032413 -0.17782542 1.052 14730309
0.13336904 -0.17721644 1.052 15323969
0.1315421 -0.17538942 1.052 15059037
0.13336904 -0.17538942 1.052 16045117
0.1315421 -0.1735625 1.052 490408
0.13336904 -0.172649 1.052 14074954
0.13519602 -0.1717355 1.052 490408
0.13641401 -0.16929957 1.052 5148818
0.13976347 -0.16899505 1.052 6198916
0.14250392 -0.16808155 1.052 10775652
0.11359538 -0.19054705 1.0550001 11048263
0.11909192 -0.19054705 1.0550001 10520882
0.12092411 -0.19054705 1.0550001 10451493
0.11359538 -0.1877988 1.0550001 12627026
0.11725973 -0.1877988 1.0550001 12296256
0.11359538 -0.18505053 1.0550001 12821320
0.11542754 -0.18505053 1.0550001 12822320
0.11725973 -0.18505053 1.0550001 12756761
0.11909192 -0.18138616 1.0550001 13812802
0.11909192 -0.17955397 1.0550001 14729542
0.12214558 -0.17894325 1.0550001 14071385
0.12458845 -0.1777218 1.0550001 13805406
0.12642065 -0.1777218 1.0550001 13672496
0.13008502 -0.17497352 1.0550001 7314552
0.13191721 -0.17222522 1.0550001 490408
0.13374938 -0.16947699 1.0550001 6658450
0.13558157 -0.16856088 1.0550001 13400432
0.10381274 -0.18925151 1.0580001 11114056
0.1093249 -0.18925151 1.0580001 11840057
0.11208101 -0.18925151 1.0580001 12234315
0.11575577 -0.18925151 1.0580001 11968594
0.10105664 -0.18741409 1.0580001 10129705
0.10381274 -0.18741409 1.0580001 11702061
0.1065688 -0.18741409 1.0580001 12428326
0.1093249 -0.18741409 1.0580001 12821555
0.11208101 -0.18741409 1.0580001 13413187
0.11575577 -0.18741409 1.0580001 13017921
0.10044417 -0.1843518 1.0580001 11770394
0.10381274 -0.18465805 1.0580001 11966478
0.1065688 -0.18465805 1.0580001 12031780
0.1093249 -0.18465805 1.0580001 12097327
0.11269347 -0.1843518 1.0580001 12492338
0.11575577 -0.18373933 1.0580001 12625196
0.11759317 -0.18373933 1.0580001 12757292
0.1139184 -0.18190196 1.0580001 13744656
0.11575577 -0.18190196 1.0580001 13942824
0.11759317 -0.18098325 1.0580001 14403644
0.11943057 -0.17822717 1.0580001 14401098
0.12126797 -0.17822717 1.0580001 14202467
0.12310537 -0.17547107 1.0580001 14073176
0.12800507 -0.1757773 1.0580001 9412705
0.13045493 -0.17271498 1.0580001 490408
0.13229233 -0.16995889 1.0580001 7512199
0.13688581 -0.16720283 1.0580001 490408
0.094894081 -0.18978816 1.0610001 9998126
0.097657964 -0.18978816 1.0610001 8274454
0.10042188 -0.18978816 1.0610001 9728288
0.10687099 -0.18978816 1.0610001 11575073
0.094894081 -0.18702424 1.0610001 11179041
0.097657964 -0.18702424 1.0610001 8813350
0.099500574 -0.18702424 1.0610001 9662508
0.094894081 -0.18426032 1.0610001 13086774
0.097657964 -0.18426032 1.0610001 12954159
0.047907695 -0.18241775 1.0610001 14024444
0.049750302 -0.18241775 1.0610001 11320234
0.068176344 -0.18149644 1.0610001 14468923
0.071247324 -0.18180355 1.0610001 14336030
0.07646805 -0.18241775 1.0610001 14731347
0.081074543 -0.18241775 1.0610001 13549653
0.097657964 -0.18241775 1.0610001 13941810
0.10042188 -0.18149644 1.0610001 12164119
0.1031858 -0.18149644 1.0610001 12026369
0.10594969 -0.18149644 1.0610001 13150215
0.10963489 -0.18149644 1.0610001 14203956
0.11239882 -0.18149644 1.0610001 14071598
0.11516271 -0.18057512 1.0610001 15122730
0.1031858 -0.17873254 1.0610001 9465601
0.10502841 -0.17873254 1.0610001 10392577
0.10963489 -0.17873254 1.0610001 13945146
0.11239882 -0.17873254 1.0610001 13877571
0.11516271 -0.17873254 1.0610001 14730040
0.11792661 -0.17873254 1.0610001 14733106
0.10502841 -0.17688991 1.0610001 7760661
0.11239882 -0.17688991 1.0610001 13085474
0.1151627 -0.17596862 1.0610001 10789693
0.11884791 -0.17596862 1.0610001 10595171
0.12161183 -0.17596862 1.0610001 7246720
0.12529702 -0.17596862 1.0610001 14075998
0.12713963 -0.17504734 1.0610001 490408
0.11424142 -0.17320471 1.0610001 14067250
0.11976922 -0.17320471 1.0610001 12694367
0.12161183 -0.17320471 1.0610001 490408
0.12437573 -0.17320471 1.0610001 7446661
0.12836803 -0.17259052 1.0610001 5545865
0.13082485 -0.17136213 1.0610001 15657066
0.13451003 -0.16767694 1.0610001 13472857
0.049275033 -0.1872451 1.064 15466227
0.052662671 -0.18755305 1.064 12490697
0.055434402 -0.18755305 1.064 11824517
0.058206134 -0.18755305 1.064 12425537
0.061901741 -0.18755305 1.064 13547852
0.064673468 -0.18755305 1.064 14140985
0.067445196 -0.18755305 1.064 13548328
0.070216894 -0.18755305 1.064 13611347
0.072988622 -0.18755305 1.064 13679165
0.076684266 -0.18755305 1.064 12890925
0.079455957 -0.18755305 1.064 12824380
0.082227692 -0.18755305 1.064 11049292
0.085923329 -0.18755305 1.064 10321474
0.088695027 -0.18755305 1.064 11107889
0.091466755 -0.18755305 1.064 12032550
0.048967063 -0.18478131 1.064 12971491
0.052662671 -0.18478131 1.064 9046926
0.055434402 -0.18478131 1.064 8723058
0.058206134 -0.18478131 1.064 10197820
0.061901741 -0.18478131 1.064 13546048
0.064673468 -0.18478131 1.064 15192387
0.067445196 -0.18478131 1.064 13354557
0.070216894 -0.18478131 1.064 12952378
0.072988622 -0.18478131 1.064 13350204
0.076684266 -0.18478131 1.064 13877061
0.079455957 -0.18478131 1.064 14466637
0.082227692 -0.18478131 1.064 12565331
0.085923329 -0.18478131 1.064 11438673
0.088695027 -0.18478131 1.064 11435584
0.091466755 -0.18478131 1.064 11967009
0.052662671 -0.18293354 1.064 9185118
0.055434402 -0.18293354 1.064 10509934
0.058206134 -0.18200964 1.064 14341968
0.061901741 -0.18200962 1.064 15260984
0.064673468 -0.18200962 1.064 16243529
0.066521287 -0.18200962 1.064 15325792
0.070216894 -0.18108571 1.064 14991381
0.073912531 -0.18200962 1.064 14861868
0.076684266 -0.18108571 1.064 15586107
0.079455957 -0.18200962 1.064 14796879
0.082535669 -0.18170166 1.064 13154638
0.085923329 -0.18200964 1.064 12230994
0.088695027 -0.18200962 1.064 12952901
0.091466755 -0.18200964 1.064 14005283
0.09423849 -0.18200962 1.064 14600498
0.09670224 -0.18170166 1.064 14601030
0.059130043 -0.1792379 1.064 15124777
0.060977828 -0.1792379 1.064 15058965
0.067445196 -0.1792379 1.064 14073366
0.070216894 -0.1792379 1.064 13743377
0.072988622 -0.1792379 1.064 13743621
0.076684266 -0.17831399 1.064 7051109
0.079455957 -0.17831399 1.064 14204216
0.082227692 -0.178314 1.064 10135136
0.085615359 -0.17862198 1.064 12953938
0.088695027 -0.1792379 1.064 12887868
0.090542853 -0.1792379 1.064 13018910
0.09423849 -0.1792379 1.064 13553417
0.097010203 -0.1792379 1.064 13621033
0.10070582 -0.178314 1.064 8682572
0.10347756 -0.17739007 1.064 6845982
0.10717316 -0.17831399 1.064 11241479
0.10994489 -0.17739007 1.064 12949280
0.083151601 -0.17554229 1.064 490408
0.084999427 -0.17554229 1.064 490408
0.10347756 -0.17554229 1.064 490408
0.10624927 -0.17554229 1.064 5136745
0.10994489 -0.17554229 1.064 6722644
0.11271663 -0.17554229 1.064 490408
0.083151601 -0.17369445 1.064 490408
0.10624927 -0.17277056 1.064 10272372
0.10994489 -0.17277056 1.064 10666352
0.11271663 -0.17277056 1.064 7845001
0.1157963 -0.17246261 1.064 9805944
0.11826006 -0.17277056 1.064 7445122
0.12103178 -0.17184667 1.064 14861428
0.12472741 -0.17184667 1.064 15524972
0.12749912 -0.17184667 1.064 15722329
0.10624927 -0.16999884 1.064 8567686
0.10994489 -0.16999884 1.064 8564605
0.11271663 -0.16999884 1.064 490408
0.11548834 -0.16907494 1.064 7972485
0.11826006 -0.16999884 1.064 490408
0.12103178 -0.16999884 1.064 8562307
0.12472741 -0.16999884 1.064 8565112
0.12749912 -0.16999884 1.064 490408
0.13027084 -0.16907494 1.064 490408
0.13304257 -0.16815104 1.064 490408
0.063989215 -0.17991173 1.0680001 15195398
0.067698747 -0.17805696 1.0680001 6786144
0.070480868 -0.17805696 1.0680001 490408
0.073263019 -0.17805696 1.0680001 6588766
0.088101104 -0.17805696 1.0680001 12756306
0.092119753 -0.17867522 1.0680001 12165675
0.094592772 -0.17805696 1.0680001 11963958
0.097374901 -0.17805696 1.0680001 12354872
0.068007879 -0.17496571 1.0680001 490408
0.074190401 -0.17527482 1.0680001 490408
0.076972552 -0.17527482 1.0680001 3770503
0.079754665 -0.17527482 1.0680001 7971195
0.081609435 -0.17527482 1.0680001 490408
0.085318968 -0.17434743 1.0680001 490408
0.088101104 -0.17527482 1.0680001 4033691
0.091501497 -0.17558396 1.0680001 9020291
0.094592772 -0.17620222 1.0680001 13676388
0.10015703 -0.17620222 1.0680001 10784817
0.10293919 -0.17527482 1.0680001 490408
0.082536817 -0.1724927 1.0680001 490408
0.085318968 -0.1724927 1.0680001 490408
0.09088324 -0.1724927 1.0680001 490408
0.10386657 -0.1724927 1.0680001 14084740
0.10386657 -0.17063792 1.0680001 490408
0.11870463 -0.1687832 1.0680001 490408
0.1205594 -0.1687832 1.0680001 16116561
0.12426893 -0.1687832 1.0680001 490408
0.12705106 -0.1687832 1.0680001 8236394
0.06416896 -0.17855713 1.0710001 7314804
0.065098949 -0.17669716 1.0710001 490408
0.066958927 -0.17669716 1.0710001 13083419
0.070678852 -0.17576718 1.0710001 490408
0.072538823 -0.17576718 1.0710001 12094501
0.092998505 -0.17483719 1.0710001 490408
0.094858482 -0.17483719 1.0710001 15386490
0.097648427 -0.17576718 1.0710001 490408
0.10043837 -0.17483719 1.0710001 12296524
0.10229835 -0.17483719 1.0710001 490408
0.076258779 -0.17297724 1.0710001 490408
0.079048723 -0.17297724 1.0710001 7711336
0.088348582 -0.17297724 1.0710001 8038811
0.092998505 -0.17204724 1.0710001 8103820
0.094858482 -0.17204724 1.0710001 16373893
0.097958416 -0.17235725 1.0710001 10402464
0.10043837 -0.17204724 1.0710001 15590755
0.10229835 -0.17204724 1.0710001 7187598
0.067146488 -0.17346177 1.074 14672258
0.069944248 -0.17346177 1.074 13291879
0.073674604 -0.17346177 1.074 13744418
0.085798293 -0.17159657 1.074 16709736
0.088596053 -0.17159657 1.074 8436868
0.091393821 -0.17159657 1.074 490408
0.096989378 -0.17159657 1.074 490408
0.095124185 -0.16973141 1.074 16307559
0.097921953 -0.16973141 1.074 490408
0.10071971 -0.16973141 1.074 15460185
0.098854527 -0.1678662 1.074 16118177
0.067396574 -0.17223565 1.0780001 16179899
0.07020475 -0.17223565 1.0780001 490408
0.073949002 -0.17223565 1.0780001 7972484
0.076757208 -0.17223565 1.0780001 490408
0.07020475 -0.17036356 1.0780001 8236961
0.073949002 -0.17036356 1.0780001 8172185
0.089862064 -0.17036356 1.0780001 16048947
0.091734201 -0.17036356 1.0780001 490408
0.094230376 -0.16911547 1.0780001 10663591
0.097350605 -0.16849141 1.0780001 15985317
0.10109483 -0.16849141 1.0780001 14204061
0.10359102 -0.16973951 1.0780001 490408
