# .PCD v0.7 - Point Cloud Data file format
VERSION 0.7
FIELDS x y z rgba
SIZE 4 4 4 4
TYPE F F F U
COUNT 1 1 1 1
WIDTH 490
HEIGHT 1
VIEWPOINT 0 0 0 1 0 0 0
POINTS 490
DATA ascii
-0.025868507 -0.17607284 0.96100003 11367828
-0.022530653 -0.17607284 0.96100003 12486804
-0.019192766 -0.17607284 0.96100003 12430760
-0.016689368 -0.17607284 0.96100003 6195354
-0.025868509 -0.17273495 0.96100003 12613287
-0.022530653 -0.17273495 0.96100003 12613287
-0.019192766 -0.17273495 0.96100003 12159140
-0.016689368 -0.17273495 0.96100003 6791069
-0.025034051 -0.16939709 0.96100003 11172251
-0.022808816 -0.16967523 0.96100008 8618380
-0.020027254 -0.17023154 0.96100003 13068209
-0.015051716 -0.17727549 0.96300006 82252
-0.015051716 -0.17560305 0.96300006 13068209
-0.028430983 -0.17393063 0.96300006 13068209
-0.015051716 -0.17309442 0.96300006 6706561
-0.026758535 -0.16974962 0.96300006 11370137
-0.021741319 -0.16891341 0.96300006 13068209
-0.018953968 -0.16947088 0.96300006 11505317
-0.0167241 -0.17058581 0.96300006 8496549
-0.02508615 -0.16724099 0.96300006 13068209
-0.022856286 -0.16668354 0.96300006 10328489
-0.020068932 -0.16724099 0.96300006 11187381
-0.030756369 -0.17503169 0.96600002 10716572
-0.028519554 -0.17615011 0.96600002 9804429
-0.013420948 -0.1753113 0.96600002 4391171
-0.030756369 -0.17223565 0.96600002 10781601
-0.028519554 -0.17195605 0.96600002 11566228
-0.015098606 -0.17111723 0.96600002 5863553
-0.031035978 -0.16943963 0.96600002 8747870
-0.028519554 -0.16943963 0.96600002 9011550
-0.015937403 -0.16943963 0.96600002 11698607
-0.030197149 -0.16776198 0.96600002 13068209
-0.028519554 -0.16776198 0.96600002 7895931
-0.026282698 -0.16664359 0.96600002 11365795
-0.021809049 -0.16608439 0.96600002 13068209
-0.019013016 -0.16664359 0.96600002 12821949
-0.015937403 -0.1669232 0.96600002 12883133
-0.025164301 -0.16440675 0.96600002 13068209
-0.023486707 -0.16440675 0.96600002 13686729
-0.019292625 -0.16440675 0.96600002 15592658
-0.015937403 -0.16440675 0.96600002 13807802
-0.040387943 -0.1750143 0.96900004 11445131
-0.03758321 -0.17557526 0.96900004 11445914
-0.034498006 -0.17585573 0.96900004 11638170
-0.031973798 -0.17669715 0.96900004 9205898
-0.011779823 -0.1750143 0.96900004 13068209
-0.040387943 -0.1733315 0.96900004 12172464
-0.037583213 -0.17220961 0.96900004 13068209
-0.034498006 -0.17249008 0.96900004 12166323
-0.031973798 -0.17164865 0.96900004 9211530
-0.013462627 -0.17249008 0.96900004 8011399
-0.011779823 -0.1733315 0.96900004 13068209
-0.037583213 -0.16884395 0.96900004 12879028
-0.034498006 -0.16912442 0.96900004 12230827
-0.031973798 -0.16828299 0.96900004 8161679
-0.013462627 -0.16912442 0.96900004 13068209
-0.011779823 -0.16828299 0.96900004 13068209
-0.033656601 -0.16660018 0.96900004 10923720
-0.031132363 -0.16660018 0.96900004 11108527
-0.028608123 -0.16660018 0.96900004 13068209
-0.013462627 -0.16660018 0.96900004 10267081
-0.011779823 -0.16660018 0.96900004 7836099
-0.030290928 -0.16491733 0.96900004 13068209
-0.028608123 -0.16491733 0.96900004 9931708
-0.026925255 -0.16491733 0.96900004 13068209
-0.021876778 -0.16491733 0.96900004 15000528
-0.015145496 -0.16323452 0.96900004 13068209
-0.013462627 -0.16491733 0.96900004 11644594
-0.010938389 -0.16491733 0.96900004 13068209
-0.046234708 -0.17535356 0.9740001 11170675
-0.043045007 -0.17555614 0.97200006 10982522
-0.04651662 -0.17253435 0.97400004 13013929
-0.043045007 -0.17302409 0.97200006 12751016
-0.040512986 -0.17218006 0.97200006 12828084
-0.038824908 -0.17386812 0.97200006 13068209
-0.011816293 -0.17218006 0.97200006 13068209
-0.046469726 -0.16982256 0.97300005 13079993
-0.043045007 -0.16964802 0.97200006 13020347
-0.040512986 -0.16964802 0.97200006 12827831
-0.038824908 -0.17049205 0.97200006 13068209
-0.011816293 -0.17049205 0.97200006 2829428
-0.046469726 -0.16644301 0.97300005 13086142
-0.043045007 -0.16627194 0.97200006 12954297
-0.040512986 -0.16627194 0.97200006 12630708
-0.037980899 -0.16627194 0.97200006 12942515
-0.034886144 -0.16599059 0.97200006 12944566
-0.032072786 -0.16542791 0.97200006 13068209
-0.049053915 -0.16407681 0.97400004 13289670
-0.046493173 -0.16314681 0.97350001 13151423
-0.043045007 -0.16289587 0.97200006 12887996
-0.040554665 -0.16306257 0.97300005 12826819
-0.038000003 -0.16297923 0.97250003 12948399
-0.034640413 -0.16306259 0.97300005 13086914
-0.031244379 -0.16297923 0.97250003 13540294
-0.027852654 -0.16289587 0.97200006 14073563
-0.025346652 -0.16306257 0.97300005 14197964
-0.022799835 -0.16297923 0.97250003 13068209
-0.019422874 -0.16297923 0.97250009 13411783
-0.0168804 -0.16289586 0.97200006 12486579
-0.0642775 -0.15900224 0.97400004 13749439
-0.04651662 -0.16069379 0.97400004 13223362
-0.043133579 -0.15984802 0.97400004 13477572
-0.040596347 -0.15984802 0.97400004 14472686
-0.038059048 -0.15984802 0.97400004 13606087
-0.034676012 -0.15984802 0.97400004 14270165
-0.031574931 -0.16012995 0.9740001 14796254
-0.027909964 -0.16069379 0.97400004 14396631
-0.025372701 -0.16069379 0.97400004 15269616
-0.022811124 -0.16052881 0.97300005 13539017
-0.020298174 -0.16069379 0.97400004 12958159
-0.047508243 -0.1747625 0.97700006 11512702
-0.052598398 -0.17136908 0.97700006 13159101
-0.050053351 -0.17136908 0.97700006 13068209
-0.058536969 -0.16967233 0.97700006 13683645
-0.055143509 -0.16967233 0.97700006 13342903
-0.052598398 -0.16967233 0.97700006 13617855
-0.050053351 -0.16967233 0.97700006 13277368
-0.072959095 -0.16627888 0.97700006 13552840
-0.071262397 -0.16627888 0.97700006 13618372
-0.067020588 -0.16627888 0.97700006 13684421
-0.064475477 -0.16627888 0.97700006 13946565
-0.061930396 -0.16712725 0.97700006 13068209
-0.058536969 -0.16712725 0.97700006 13343417
-0.055143509 -0.16712725 0.97700006 13408953
-0.052598398 -0.16712725 0.97700006 13277625
-0.050053351 -0.16712725 0.97700006 13139893
-0.073807478 -0.16373381 0.97700006 13068209
-0.070696816 -0.1640166 0.97700012 13478335
-0.067020588 -0.16373381 0.97700006 13205687
-0.064475477 -0.16373381 0.97700006 13749441
-0.061930396 -0.16458218 0.97700006 13880516
-0.05825419 -0.1640166 0.97700012 13413056
-0.055143505 -0.16373381 0.97700006 13277373
-0.052598398 -0.16458218 0.97700006 13420490
-0.050336134 -0.16345102 0.97700012 13141944
-0.07804925 -0.159492 0.97700006 13068209
-0.076352552 -0.16034037 0.97700006 13277372
-0.073807478 -0.16034037 0.97700006 13205686
-0.070414014 -0.16034037 0.97700006 13480898
-0.067020588 -0.16034037 0.97700006 13343422
-0.064475477 -0.16118874 0.97700006 13749443
-0.05825419 -0.16005759 0.97700012 13273271
-0.055426292 -0.16062316 0.97700012 13486277
-0.049770571 -0.16062316 0.97700012 13068209
-0.046659894 -0.159492 0.97700006 13068209
-0.030541008 -0.159492 0.97700006 13068209
-0.027995929 -0.159492 0.97700006 14658772
-0.078897633 -0.15694693 0.97700006 13479871
-0.076352552 -0.15694693 0.97700006 13277115
-0.073807478 -0.15694693 0.97700006 13277372
-0.070414014 -0.15694693 0.97700006 13277372
-0.067020588 -0.15694693 0.97700006 13277371
-0.064475477 -0.15694693 0.97700006 13068209
-0.049205005 -0.15694693 0.97700006 13419720
-0.046659894 -0.15694693 0.97700006 13145787
-0.043266434 -0.15694693 0.97700006 14533586
-0.039873004 -0.15694693 0.97700006 15390954
-0.037327927 -0.15694693 0.97700006 15989758
-0.034782819 -0.15694693 0.97700006 14265555
-0.031389389 -0.15694693 0.97700006 15257569
-0.02884431 -0.15609854 0.97700006 15657963
-0.078897633 -0.15440185 0.97700006 13486018
-0.076352552 -0.15440185 0.97700006 13486020
-0.073807478 -0.15440185 0.97700006 13276859
-0.070414014 -0.15440185 0.97700006 13211324
-0.067020588 -0.15440185 0.97700006 13277370
-0.064475477 -0.15440185 0.97700006 13068209
-0.046659894 -0.15440185 0.97700006 13541059
-0.043266434 -0.15440185 0.97700006 13068209
-0.039024625 -0.15440185 0.97700006 16711422
-0.037327927 -0.15440185 0.97700006 16252670
-0.034782819 -0.15440185 0.97700006 14462165
-0.032237772 -0.15440185 0.97700006 15398126
-0.078897633 -0.15185674 0.97700006 13145528
-0.076352552 -0.15185672 0.97700006 13419458
-0.073807478 -0.15185672 0.97700006 13139638
-0.070414014 -0.15185672 0.97700006 13211579
-0.067868941 -0.15185672 0.97700006 13420737
-0.07804925 -0.14931166 0.97700006 13156547
-0.073524684 -0.14874609 0.97700012 13215422
-0.070414014 -0.14846329 0.97700006 13217475
-0.067868941 -0.14846329 0.97700006 13354698
-0.067868941 -0.14506984 0.97700006 13068209
-0.049356092 -0.17529914 0.98000002 13068209
-0.061836906 -0.17246258 0.98000002 12952504
-0.058716714 -0.17274624 0.98000002 12881583
-0.055312835 -0.17189527 0.98000002 13146038
-0.051908955 -0.17359719 0.98000002 12881840
-0.049356092 -0.17359719 0.98000002 12827816
-0.07403411 -0.16849142 0.98000002 13068209
-0.070913889 -0.16905873 0.98000002 13207734
-0.06722638 -0.16934237 0.98000002 13343162
-0.064673461 -0.16934237 0.98000002 13409213
-0.062120564 -0.17019331 0.98000002 13068209
-0.079139888 -0.16508755 0.98000002 13212089
-0.076586999 -0.1659385 0.98000002 13487048
-0.0748851 -0.16678946 0.98000002 13487308
-0.06977924 -0.16678946 0.98000002 13684165
-0.079139888 -0.1633856 0.98000002 13277626
-0.076586999 -0.1633856 0.98000002 13552584
-0.06977924 -0.1633856 0.98000002 13068209
-0.062120564 -0.1633856 0.98000002 13068209
-0.059567668 -0.1633856 0.98000002 13618118
-0.052759908 -0.1633856 0.98000002 13068209
-0.081692792 -0.1608327 0.98000002 13342903
-0.079423562 -0.16111636 0.98000002 13207479
-0.062120564 -0.1608327 0.98000002 13205686
-0.059567668 -0.16168369 0.98000002 13683654
-0.054461882 -0.15998173 0.98000002 13068209
-0.05219261 -0.16054904 0.98000002 13215678
-0.082543775 -0.15742885 0.98000002 13068209
-0.062971547 -0.15742885 0.98000002 13277626
-0.058433067 -0.15714519 0.98000002 13346749
-0.055312835 -0.15742885 0.98000002 13283264
-0.051908955 -0.15742885 0.98000002 13282754
-0.082543775 -0.15402497 0.98000002 13211576
-0.066375427 -0.153174 0.98000002 13552068
-0.064673461 -0.153174 0.98000002 13420998
-0.062120564 -0.15487595 0.98000002 13354697
-0.058433067 -0.15430865 0.98000002 13280962
-0.055312835 -0.15402497 0.98000002 13414854
-0.051908955 -0.15402497 0.98000002 13612743
-0.049356092 -0.15402497 0.98000002 13475777
-0.046803169 -0.153174 0.98000002 13803461
-0.043399289 -0.153174 0.98000002 14395344
-0.040279102 -0.15374133 0.98000002 15453156
-0.03744255 -0.153174 0.98000002 16252670
-0.034889624 -0.153174 0.98000002 13068209
-0.082543775 -0.15147205 0.98000002 13156283
-0.066375427 -0.15147205 0.98000002 13068209
-0.064673461 -0.15147205 0.98000002 13068209
-0.062120564 -0.15147205 0.98000002 13277374
-0.058716714 -0.15147205 0.98000002 13685197
-0.055312835 -0.15147205 0.98000002 13474754
-0.051908955 -0.15147205 0.98000002 14143963
-0.049356092 -0.15147205 0.98000002 14474461
-0.046803169 -0.15147205 0.98000002 13068209
-0.043399289 -0.15147205 0.98000002 14527700
-0.082543775 -0.14891917 0.98000002 13008052
-0.079423562 -0.14863551 0.98000002 13075638
-0.076586999 -0.14891917 0.98000002 13145530
-0.0748851 -0.14806819 0.98000002 13068209
-0.066375427 -0.14891917 0.98000002 13211581
-0.064673461 -0.14891917 0.98000002 13276863
-0.062120564 -0.14891917 0.98000002 13205432
-0.058716714 -0.14891917 0.98000002 13475010
-0.055312835 -0.14891917 0.98000002 13606083
-0.051908955 -0.14891917 0.98000002 13672135
-0.049356092 -0.14977014 0.98000002 14605025
-0.047654118 -0.14977014 0.98000002 13068209
-0.078288905 -0.14636628 0.98000002 13354438
-0.076586999 -0.14551531 0.98000002 13486536
-0.07403411 -0.14551531 0.98000002 13277373
-0.070630223 -0.14551531 0.98000002 13349062
-0.066375427 -0.14551531 0.98000002 13343167
-0.064673461 -0.14551531 0.98000002 13408705
-0.062120564 -0.14551531 0.98000002 13540547
-0.058716714 -0.14551531 0.98000002 13941455
-0.055029184 -0.14579897 0.98000002 14004942
-0.051908955 -0.14551531 0.98000002 14402264
-0.073183127 -0.14296241 0.98000002 13749199
-0.070630223 -0.14211144 0.98000002 13611721
-0.06722638 -0.14211144 0.98000002 13810396
-0.064673461 -0.14211144 0.98000002 14343402
-0.062120564 -0.14211144 0.98000002 13541061
-0.059000365 -0.14239511 0.98000002 14539739
-0.054461882 -0.14296241 0.98000002 13068209
-0.052759908 -0.14296241 0.98000002 15330025
-0.070630223 -0.13955855 0.98000002 15521243
-0.06722638 -0.13955855 0.98000002 16580345
-0.064673461 -0.13955855 0.98000002 16056056
-0.062971547 -0.13955855 0.98000002 15461104
-0.068077333 -0.13785659 0.98000002 16119541
-0.078288905 -0.12594305 0.98000002 14212317
-0.076586999 -0.12594305 0.98000002 13068209
-0.078528568 -0.17412861 0.98300004 11048336
-0.071700037 -0.17412861 0.98300004 12236973
-0.06743218 -0.17412861 0.98300004 12629936
-0.064017877 -0.17412861 0.98300004 12629939
-0.055482157 -0.17412861 0.98300004 12881583
-0.079382159 -0.17242149 0.98300004 11774614
-0.075967893 -0.17242149 0.98300004 12433314
-0.073407151 -0.17242149 0.98300004 12763827
-0.070846446 -0.17242149 0.98300004 13068209
-0.06743218 -0.17242149 0.98300004 13080507
-0.06487143 -0.17242149 0.98300004 13093321
-0.079382159 -0.16986075 0.98300004 13008564
-0.076252416 -0.17014527 0.98300004 13142201
-0.073407151 -0.17071432 0.98300004 13551038
-0.069992855 -0.17071432 0.98300004 13068209
-0.082796454 -0.16559292 0.98300004 13068209
-0.079382159 -0.16730005 0.98300004 13211323
-0.085357167 -0.16217864 0.98300004 13068209
-0.083080992 -0.16331673 0.98300004 13215929
-0.085357167 -0.16047147 0.98300004 13068209
-0.083650053 -0.16047147 0.98300004 13552064
-0.087064289 -0.15705718 0.98300004 13355203
-0.085357167 -0.15791076 0.98300004 13420740
-0.061457139 -0.15791076 0.98300004 13342910
-0.059750017 -0.15876435 0.98300004 13617861
-0.093892887 -0.15364291 0.98300004 15658467
-0.091332182 -0.15364291 0.98300004 13805002
-0.087917879 -0.15449649 0.98300004 13211064
-0.085357167 -0.15449649 0.98300004 13288895
-0.063164316 -0.15364291 0.98300004 13355209
-0.061457139 -0.15364291 0.98300004 13068209
-0.059750017 -0.15364291 0.98300004 13068209
-0.094746441 -0.15108219 0.98300004 14862806
-0.091332182 -0.15108219 0.98300004 13403582
-0.087917879 -0.15108219 0.98300004 13019572
-0.085357167 -0.15108219 0.98300004 12959418
-0.046092886 -0.15022862 0.98300004 13068209
-0.043532141 -0.15022862 0.98300004 14660309
-0.040117875 -0.15108219 0.98300004 13929668
-0.03755717 -0.15108219 0.98300004 15596275
-0.035849985 -0.15193574 0.98300004 14937323
-0.094746441 -0.14852147 0.98300004 15526886
-0.091332182 -0.14852147 0.98300004 13292507
-0.087917879 -0.14852147 0.98300004 12750004
-0.085357167 -0.14852147 0.98300004 12695997
-0.049507186 -0.14852147 0.98300004 14870501
-0.046946444 -0.14852147 0.98300004 13068209
-0.043532141 -0.14852147 0.98300004 14594263
-0.040117875 -0.14852147 0.98300004 14463447
-0.082796454 -0.14596075 0.98300004 13068209
-0.079666689 -0.14567623 0.98300004 13149628
-0.056335717 -0.14510716 0.98300004 14672352
-0.049507186 -0.14596075 0.98300004 15264489
-0.046946444 -0.14681433 0.98300004 15657963
-0.081942864 -0.14340004 0.98300004 13289411
-0.079382159 -0.14254646 0.98300004 13348802
-0.075967893 -0.14254647 0.98300004 13343167
-0.073407151 -0.14169289 0.98300004 13068209
-0.058042902 -0.14169289 0.98300004 13068209
-0.055766679 -0.14226195 0.98300004 14334929
-0.051783346 -0.14226195 0.98300004 13800132
-0.049507186 -0.14254647 0.98300004 15461101
-0.075967893 -0.13998577 0.98300004 13408961
-0.073407151 -0.13913219 0.98300004 13816531
-0.070846446 -0.1382786 0.98300004 13068209
-0.066578619 -0.1382786 0.98300004 13068209
-0.064017877 -0.1382786 0.98300004 14725847
-0.061457139 -0.13913219 0.98300004 15328755
-0.05889646 -0.13913219 0.98300004 13068209
-0.055482157 -0.13998577 0.98300004 15132390
-0.051783346 -0.13941672 0.98300004 14597848
-0.049507186 -0.13913219 0.98300004 15395566
-0.070846446 -0.1365715 0.98300004 13803719
-0.06743218 -0.1365715 0.98300004 14461645
-0.064017877 -0.1365715 0.98300004 16711417
-0.061457139 -0.1365715 0.98300004 16711421
-0.059750017 -0.1365715 0.98300004 16710904
-0.0512143 -0.1365715 0.98300004 15395050
-0.06743218 -0.13486433 0.98300004 14198472
-0.0512143 -0.13486433 0.98300004 13068209
-0.049507186 -0.13486433 0.98300004 13068209
-0.079382159 -0.12803575 0.98300004 13212094
-0.075967893 -0.12803575 0.98300004 13068209
-0.070135258 -0.17448288 0.98500007 12499118
-0.082679808 -0.1722021 0.98500007 11576733
-0.08296492 -0.16935107 0.98500007 12817332
-0.088096753 -0.16678512 0.98500007 13601727
-0.085530832 -0.16678512 0.98500007 13749189
-0.08296492 -0.16764042 0.98500007 13079478
-0.085530832 -0.1642192 0.98500007 13288384
-0.087811649 -0.15965758 0.98500007 13413054
-0.091518 -0.15737674 0.98500007 13936329
-0.088952087 -0.15737674 0.98500007 13682884
-0.091518 -0.15566614 0.98500007 13870538
-0.09750516 -0.15053427 0.98500007 15132388
-0.09750516 -0.14882363 0.98500007 15197924
-0.088096753 -0.14711304 0.98500007 13068209
-0.085530832 -0.14711304 0.98500007 12498362
-0.043620713 -0.14711304 0.98500007 13068209
-0.041054826 -0.14711304 0.98500007 15137263
-0.088096753 -0.14540242 0.98500007 12036786
-0.085530832 -0.14540242 0.98500007 12499384
-0.04704196 -0.14540242 0.98500007 13068209
-0.043620713 -0.14540242 0.98500007 14330320
-0.091518 -0.14198118 0.98500007 13740238
-0.087811649 -0.14255139 0.98500007 12811443
-0.085530832 -0.1428365 0.98500007 12368315
-0.083250031 -0.14255139 0.98500007 13068209
-0.04704196 -0.1428365 0.98500007 13666495
-0.044476006 -0.14369181 0.98500007 15133424
-0.079543673 -0.14027059 0.98500007 13552844
-0.076122455 -0.13855994 0.98500007 13068209
-0.055595044 -0.13855994 0.98500007 14264268
-0.053029094 -0.13855994 0.98500007 15395051
-0.047327057 -0.13970038 0.98500007 14663639
-0.075267158 -0.13684936 0.98500007 13946576
-0.073556505 -0.13599403 0.98500007 14145240
-0.070990585 -0.13513871 0.98500007 13068209
-0.064148128 -0.13513871 0.98500007 14593234
-0.061582174 -0.13513871 0.98500007 13068209
-0.059016287 -0.13599403 0.98500007 14725330
-0.055595044 -0.13684936 0.98500007 14396114
-0.053029094 -0.13599403 0.98500007 15330288
-0.049607914 -0.13684936 0.98500007 15395308
-0.070135258 -0.13342813 0.98500007 13068209
-0.067569375 -0.13342813 0.98500007 13935562
-0.051318504 -0.13342813 0.98500007 13068209
-0.049607914 -0.13342813 0.98500007 15064543
-0.076122455 -0.13086219 0.98500007 13349568
-0.073556505 -0.13086219 0.98500007 13803717
-0.073556505 -0.12829626 0.98500007 14673113
-0.088365071 -0.17158265 0.98800004 12961231
-0.085219406 -0.17215461 0.98800009 11709864
-0.090938799 -0.16815101 0.98800004 15855334
-0.088365071 -0.16986686 0.98800004 13675214
-0.085791335 -0.16986686 0.98800004 13025746
-0.090938799 -0.1664352 0.98800004 13068209
-0.090938799 -0.16471936 0.98800004 15659229
-0.088365071 -0.16386145 0.98800004 13403834
-0.091796733 -0.1595719 0.98800004 14067656
-0.089223005 -0.16128771 0.98800004 14145222
-0.096086271 -0.1475611 0.98800004 13068209
-0.094370469 -0.1475611 0.98800004 13068209
-0.091796733 -0.1475611 0.98800004 13411277
-0.094370469 -0.14498734 0.98800004 14395341
-0.091796733 -0.14498734 0.98800004 13477326
-0.088365071 -0.14069781 0.98800004 11973313
-0.08493343 -0.14069781 0.98800004 12499636
-0.082359672 -0.13983989 0.98800004 13014457
-0.079785943 -0.13898195 0.98800004 13068209
-0.078928009 -0.13726614 0.98800004 13684178
-0.076640271 -0.13612226 0.98800009 13273531
-0.058338135 -0.13555031 0.98800004 13068209
-0.055764366 -0.13555031 0.98800004 14725847
-0.048043136 -0.13555031 0.98800004 13068209
-0.078928009 -0.13211866 0.98800004 13068209
-0.076354302 -0.13383451 0.98800004 13409468
-0.072636679 -0.13326256 0.98800009 13470910
-0.070348874 -0.13211866 0.98800004 15067110
-0.067775168 -0.13211866 0.98800004 13068209
-0.064343497 -0.13297659 0.98800004 15189980
-0.060911834 -0.13297659 0.98800004 14659280
-0.058338135 -0.13297659 0.98800004 16317166
-0.055764362 -0.13297659 0.98800004 13733055
-0.052618675 -0.13269061 0.98800009 13068209
-0.048901066 -0.13297659 0.98800004 13068209
-0.078928009 -0.13040285 0.98800004 12562625
-0.072064742 -0.13040285 0.98800004 13068209
-0.070348874 -0.13040285 0.98800004 15198184
-0.068633065 -0.13040285 0.98800004 13068209
-0.072064742 -0.12868701 0.98800004 14869485
-0.070348874 -0.12868701 0.98800004 13068209
-0.068633065 -0.12868701 0.98800004 13068209
-0.092936009 -0.16521952 0.99100006 15658723
-0.092075467 -0.16349849 0.99100006 15396572
-0.092075467 -0.16177744 0.99100006 14199497
-0.089493923 -0.1445671 0.99100006 12033461
-0.088633388 -0.13940397 0.99100006 13080516
-0.085191324 -0.13940397 0.99100006 12486568
-0.085191324 -0.13768296 0.99100006 12037811
-0.08260975 -0.13682243 0.99100006 12631484
-0.080315046 -0.13653558 0.99100006 13207480
-0.08260975 -0.13424088 0.99100006 12035521
-0.080315046 -0.1336672 0.99100006 13068209
-0.048189018 -0.13251983 0.99100006 13068209
-0.080888733 -0.13079882 0.99100006 13068209
-0.067120455 -0.12993827 0.99100006 13068209
-0.064538874 -0.13079882 0.99100006 15262953
-0.061096791 -0.12993827 0.99100006 14199248
-0.058515273 -0.13079882 0.99100006 15132654
-0.0567942 -0.13079882 0.99100006 13068209
-0.088901699 -0.13809976 0.99400002 12570836
-0.085449226 -0.13637348 0.99400002 13068209
-0.088901699 -0.13464727 0.99400002 13068209
-0.085161529 -0.13407186 0.99400008 13076670
-0.082859829 -0.132921 0.99400002 12632264
-0.082859829 -0.13119477 0.99400002 13226198
-0.06473425 -0.1294685 0.99400002 13068209
-0.090035766 -0.13678508 0.99700004 13068209
-0.088304266 -0.13678508 0.99700004 13068209
-0.088304266 -0.13332216 0.99700004 13068209
-0.086572833 -0.13332216 0.99700004 13948402
-0.090306684 -0.13372333 1 15198691
-0.090577602 -0.13238265 1.003 13068209
-0.087964758 -0.13238265 1.003 13068209
-0.085351989 -0.13238265 1.003 13068209
-0.090577602 -0.13064076 1.003 15132129
-0.087964758 -0.13064076 1.003 14132680
-0.090577602 -0.127157 1.003 13068209
-0.087964758 -0.127157 1.003 14067399
-0.092013232 -0.12986676 1.006 14400208
-0.088227868 -0.1292844 1.006 14067143
-0.085607275 -0.1310315 1.006 14739938
-0.083860151 -0.1310315 1.006 13068209
-0.085777469 -0.12954141 1.008 15198433
