# .PCD v0.7 - Point Cloud Data file format
VERSION 0.7
FIELDS x y z rgba
SIZE 4 4 4 4
TYPE F F F U
COUNT 1 1 1 1
WIDTH 407
HEIGHT 1
VIEWPOINT 0 0 0 1 0 0 0
POINTS 407
DATA ascii
0.09397278 -0.16675562 1.0610001 15920618
0.091810621 -0.1687832 1.0680001 14276313
0.092738003 -0.1669284 1.0680001 15791854
0.089278549 -0.17111725 1.0710001 12953009
0.091758519 -0.17173724 1.0710001 12957876
0.094858482 -0.17111725 1.0710001 14735828
0.089278549 -0.1692573 1.0710001 1170174
0.089278549 -0.16739731 1.0710001 13473743
0.091138527 -0.16739731 1.0710001 15197662
0.078337573 -0.18092248 1.074 8070916
0.083000511 -0.18092248 1.074 12048022
0.085798293 -0.18092248 1.074 10569089
0.088596053 -0.18092248 1.074 10913949
0.091393821 -0.18092248 1.074 15654849
0.093258999 -0.18092248 1.074 15787739
0.078337573 -0.17905727 1.074 1170174
0.083311372 -0.17781386 1.0740001 1170174
0.088596053 -0.1781247 1.074 1170174
0.091393821 -0.17719212 1.074 14076585
0.093258999 -0.17719212 1.074 1170174
0.083000511 -0.17532691 1.074 67459
0.085798293 -0.17532691 1.074 5184094
0.087663479 -0.17532691 1.074 1170174
0.091393821 -0.17532691 1.074 13023908
0.093258999 -0.17532691 1.074 13877674
0.085798293 -0.17346177 1.074 9940668
0.087663479 -0.17252916 1.074 7261663
0.094191596 -0.17346177 1.074 14208438
0.096989378 -0.17346177 1.074 14802141
0.076757208 -0.18159631 1.0780001 3561315
0.080501437 -0.18159631 1.0780001 12625488
0.07488507 -0.17972416 1.0780001 1170174
0.076757208 -0.17878811 1.0780001 1513568
0.079877406 -0.1784761 1.0780001 6382707
0.082373567 -0.17972416 1.0780001 1170174
0.086117841 -0.17878811 1.0780001 7998753
0.079565391 -0.1759799 1.0780001 1509222
0.082373567 -0.1741078 1.0780001 1170174
0.084245704 -0.1741078 1.0780001 1170174
0.089862064 -0.17504385 1.0780001 1170174
0.065706782 -0.18022431 1.0810001 12759972
0.067584135 -0.18022431 1.0810001 12952482
0.070400126 -0.18022431 1.0810001 13352111
0.073216118 -0.18022431 1.0810001 1170174
0.065706782 -0.17834701 1.0810001 1170174
0.067584135 -0.17834701 1.0810001 12560291
0.070400126 -0.17834701 1.0810001 7064533
0.073216118 -0.17834701 1.0810001 1170174
0.075093471 -0.17834701 1.0810001 1170174
0.067584135 -0.17646964 1.0810001 12168093
0.07133878 -0.17646964 1.0810001 1170174
0.073216118 -0.17646964 1.0810001 12165542
0.076032147 -0.175531 1.0810001 4300999
0.078848153 -0.17459235 1.0810001 1170174
0.069718502 -0.17712262 1.085 1170174
0.071602754 -0.17523839 1.085 1170174
0.073487043 -0.17523839 1.085 10982296
0.081024177 -0.17523839 1.085 8229319
0.071602754 -0.17335407 1.085 1170174
0.073487043 -0.17335407 1.085 9801104
0.076627538 -0.17272601 1.085 7513785
0.079139918 -0.17241195 1.085 8052459
0.081966318 -0.17335407 1.085 8773355
0.085734896 -0.17335407 1.085 1170174
0.068021767 -0.17572291 1.0880001 12170391
0.069911271 -0.17572291 1.0880001 1170174
0.068021767 -0.17383339 1.0880001 1170174
0.071800731 -0.17194392 1.0880001 1170174
0.073690236 -0.17194392 1.0880001 9603209
0.07557974 -0.17194392 1.0880001 1170174
0.08219295 -0.17194392 1.0880001 1170174
0.085971951 -0.17194392 1.0880001 1170174
0.088806204 -0.17194392 1.0880001 12635353
0.07683941 -0.16942458 1.0880001 4968417
0.079358734 -0.16910964 1.0880001 8711412
0.08219295 -0.17005441 1.0880001 16514809
0.066314615 -0.17810211 1.0910001 1170174
0.066314615 -0.17526007 1.0910001 1170174
0.07010404 -0.17431271 1.0910001 1170174
0.068209328 -0.17241804 1.0910001 12372938
0.07010404 -0.17241804 1.0910001 1170174
0.071367159 -0.16989174 1.0910001 4049130
0.073893428 -0.16957594 1.0910001 10128316
0.075788133 -0.16862857 1.0910001 1170174
0.082419589 -0.16862857 1.0910001 8580350
0.085261658 -0.17052332 1.0910001 1170174
0.088103719 -0.17052332 1.0910001 6474985
0.075788133 -0.16673389 1.0910001 14076895
0.068459406 -0.17114851 1.095 1170174
0.070361063 -0.16924684 1.095 1170174
0.085574254 -0.16924684 1.095 1170174
0.088426739 -0.16924684 1.095 1170174
0.074164346 -0.16734521 1.095 1170174
0.077967666 -0.16734521 1.095 1170174
0.079869322 -0.16734521 1.095 16187134
0.08272177 -0.16734521 1.095 1170174
0.066740103 -0.17352429 1.098 1170174
0.068646967 -0.16971052 1.098 1170174
0.070553839 -0.16780369 1.098 13812451
0.07309629 -0.16653244 1.098 5562619
0.076274402 -0.1658968 1.098 1170174
0.079134703 -0.1658968 1.098 1170174
0.082948402 -0.1658968 1.098 1170174
0.085808702 -0.16685024 1.098 1170174
0.088669002 -0.16780369 1.098 1170174
0.065069422 -0.17607021 1.102 1170174
0.06698323 -0.17224261 1.102 1170174
0.068897054 -0.168415 1.102 1170174
0.091862708 -0.16937189 1.102 14400214
0.093776524 -0.17032878 1.102 15923687
0.068897054 -0.16650116 1.102 1170174
0.070810862 -0.16650116 1.102 15000554
0.088992022 -0.16650116 1.102 1170174
0.070810862 -0.16458738 1.102 16182250
0.074000522 -0.16394943 1.102 6219004
0.076552272 -0.16458738 1.102 1170174
0.079422988 -0.16363046 1.102 8908030
0.082293674 -0.16363046 1.102 8908030
0.084845424 -0.16394943 1.102 6350589
0.088035114 -0.16458738 1.102 1170174
0.06524656 -0.17846857 1.105 1170174
0.06524656 -0.17463055 1.105 1170174
0.06524656 -0.17271151 1.105 15196366
0.06524656 -0.17079246 1.105 1170174
0.067165583 -0.16983297 1.105 8053490
0.094991326 -0.16887349 1.105 16514036
0.067165583 -0.16695443 1.105 1170174
0.069084607 -0.16503544 1.105 1170174
0.091153294 -0.16599494 1.105 8246001
0.094991326 -0.16695443 1.105 16448759
0.070044123 -0.1631164 1.105 8710132
0.072922617 -0.1631164 1.105 1170174
0.076760672 -0.1631164 1.105 16645374
0.086355753 -0.1631164 1.105 1170174
0.088274777 -0.1631164 1.105 16187134
0.071003638 -0.16119741 1.105 1170174
0.073882133 -0.16023789 1.105 4972797
0.076760672 -0.16023789 1.105 16645630
0.079639204 -0.16023789 1.105 1170174
0.082517706 -0.16023789 1.105 16645629
0.085396238 -0.16023789 1.105 1170174
0.088274777 -0.16119741 1.105 1170174
0.074841648 -0.15735938 1.105 16711165
0.076760672 -0.15735938 1.105 16645629
0.079639204 -0.15735938 1.105 8907773
0.082517706 -0.15735938 1.105 16645629
0.084436722 -0.15735938 1.105 16645629
0.063556775 -0.17718862 1.1090001 1170174
0.065482743 -0.16948478 1.1090001 15132388
0.065482743 -0.16659583 1.1090001 1170174
0.067408718 -0.16563286 1.1090001 1170174
0.067408718 -0.16370687 1.1090001 1170174
0.090520293 -0.16370687 1.1090001 1170174
0.067408718 -0.16178094 1.1090001 15461095
0.069976687 -0.16049695 1.1090001 6285053
0.070297673 -0.157929 1.1090001 8908029
0.073186599 -0.15696602 1.1090001 8908029
0.076075554 -0.15600303 1.1090001 8907773
0.079927489 -0.15600303 1.1090001 1170174
0.082816407 -0.15600303 1.1090001 1170174
0.086026371 -0.15664503 1.1090001 1170174
0.076075554 -0.1540771 1.1090001 1170174
0.079927489 -0.1540771 1.1090001 1170174
0.082816407 -0.1540771 1.1090001 16645629
0.084742382 -0.1540771 1.1090001 16645629
0.061853137 -0.17782772 1.113 1170174
0.063786015 -0.17299545 1.113 8051687
0.063786015 -0.16912962 1.113 8381427
0.063786015 -0.16623028 1.113 1170174
0.064752474 -0.1633309 1.113 4643832
0.090846792 -0.16236445 1.113 1170174
0.065718934 -0.16043152 1.113 1170174
0.067651853 -0.16043152 1.113 15791087
0.088913865 -0.16043152 1.113 16514814
0.090846792 -0.16043152 1.113 16318200
0.065718934 -0.15849863 1.113 15724267
0.067651853 -0.15753216 1.113 16315637
0.070551232 -0.1565657 1.113 8908029
0.088913865 -0.15849863 1.113 1170174
0.071517691 -0.15463282 1.113 1170174
0.073450565 -0.15463282 1.113 16645629
0.071517691 -0.15269989 1.113 1170174
0.073450565 -0.15269989 1.113 16579837
0.076349944 -0.15269989 1.113 8842237
0.079249315 -0.15269989 1.113 1170174
0.082148679 -0.15269989 1.113 1170174
0.085048042 -0.15269989 1.113 1170174
0.062019859 -0.17539987 1.1160001 6999265
0.063957945 -0.17636895 1.1160001 1170174
0.061050795 -0.17249265 1.1160001 8051952
0.062019859 -0.1695855 1.1160001 8447219
0.062019859 -0.16667834 1.1160001 15658219
0.093029752 -0.16667834 1.1160001 1170174
0.061050795 -0.16377114 1.1160001 4709880
0.093998812 -0.16377114 1.1160001 4841722
0.061050795 -0.16086395 1.1160001 15394535
0.063957945 -0.16086395 1.1160001 15196388
0.093029752 -0.16086395 1.1160001 16119795
0.064603992 -0.15763377 1.1160001 1170174
0.089153528 -0.15698771 1.1160001 1170174
0.091091655 -0.15795678 1.1160001 1170174
0.093029752 -0.15892586 1.1160001 1170174
0.065896079 -0.15504962 1.1160001 1170174
0.067834198 -0.15408054 1.1160001 8908028
0.069772325 -0.15408054 1.1160001 8908029
0.088184461 -0.15408054 1.1160001 1170174
0.091091655 -0.15504962 1.1160001 16711419
0.07171046 -0.1511734 1.1160001 1170174
0.07364855 -0.1511734 1.1160001 16579836
0.076555736 -0.1511734 1.1160001 8842237
0.079462931 -0.1511734 1.1160001 1170174
0.082370102 -0.1511734 1.1160001 1170174
0.085277274 -0.1511734 1.1160001 16645629
0.087215401 -0.1511734 1.1160001 16645629
0.07364855 -0.14923523 1.1160001 16579836
0.076878756 -0.14858922 1.1160001 1170174
0.079462931 -0.14923523 1.1160001 16579836
0.082370102 -0.1482662 1.1160001 1170174
0.085277274 -0.1482662 1.1160001 1170174
0.087215401 -0.14923523 1.1160001 1170174
0.058352001 -0.17700109 1.12 1170174
0.060297076 -0.17700109 1.12 1170174
0.060297076 -0.17505601 1.12 1170174
0.058352001 -0.17213839 1.12 7986927
0.060297076 -0.17116587 1.12 1170174
0.058352001 -0.16922079 1.12 1170174
0.060297076 -0.16922079 1.12 1170174
0.058352001 -0.1663032 1.12 15657448
0.060297076 -0.16727576 1.12 15854313
0.095308259 -0.16727576 1.12 1170174
0.097253338 -0.16533065 1.12 1170174
0.058352001 -0.16338561 1.12 15591401
0.097253338 -0.16338561 1.12 16119542
0.056406926 -0.16144052 1.12 1170174
0.058352001 -0.16046801 1.12 8315379
0.061269611 -0.15949549 1.12 8248561
0.095308259 -0.16046801 1.12 1170174
0.097253338 -0.16046801 1.12 1170174
0.058352001 -0.15755039 1.12 15394281
0.061269611 -0.15755039 1.12 15393765
0.09433572 -0.15755039 1.12 16052724
0.097253338 -0.15755039 1.12 15921646
0.046681594 -0.15463281 1.12 15987701
0.049599208 -0.15463281 1.12 1170174
0.052516818 -0.15560536 1.12 1170174
0.054461852 -0.15560536 1.12 1170174
0.061593793 -0.154957 1.1200001 1170174
0.064187191 -0.15463281 1.12 8578807
0.066132262 -0.15366027 1.12 1170174
0.091418147 -0.15366027 1.12 16711420
0.094335727 -0.15463281 1.12 1170174
0.097253338 -0.15560536 1.12 15853805
0.067104802 -0.15171523 1.12 16579321
0.070022412 -0.15171523 1.12 1170174
0.089473084 -0.15171523 1.12 16645885
0.091418147 -0.15171523 1.12 16711420
0.093363188 -0.15171523 1.12 16645372
0.068077333 -0.14879762 1.12 8907773
0.070994951 -0.14879762 1.12 1170174
0.073912516 -0.14782509 1.12 16579836
0.075857595 -0.14782509 1.12 1170174
0.079747744 -0.14782509 1.12 16579836
0.088824734 -0.14847344 1.1200001 1170174
0.091418147 -0.14879762 1.12 1170174
0.073912516 -0.14588001 1.12 16579836
0.076830134 -0.14588001 1.12 1170174
0.079747744 -0.14588001 1.12 16579836
0.082665332 -0.14588001 1.12 1170174
0.085582927 -0.14588001 1.12 16579836
0.088500544 -0.14588001 1.12 16579836
0.076830134 -0.14393491 1.12 1170174
0.079747744 -0.14393491 1.12 16579836
0.082665332 -0.14393491 1.12 1170174
0.085582927 -0.14393491 1.12 16579836
0.087528005 -0.14393491 1.12 1170174
0.058508303 -0.17552491 1.123 14272468
0.052657485 -0.17357461 1.123 15334643
0.055907927 -0.17292452 1.123 1170174
0.056558017 -0.16967405 1.123 1170174
0.050707202 -0.16674866 1.123 1170174
0.052657485 -0.16674866 1.123 1170174
0.055582874 -0.16674866 1.123 1170174
0.09751384 -0.1677238 1.123 16317434
0.099464126 -0.16577351 1.123 1170174
0.049732059 -0.16382325 1.123 1170174
0.052657485 -0.16382325 1.123 15526381
0.055582874 -0.16382325 1.123 8314868
0.099464126 -0.16382325 1.123 1170174
0.049732059 -0.16089782 1.123 1170174
0.052657485 -0.16089782 1.123 15591658
0.055257827 -0.1605728 1.123 1170174
0.099464126 -0.16089782 1.123 8644344
0.049732059 -0.15797241 1.123 1170174
0.052657485 -0.15797241 1.123 15461095
0.055907927 -0.15732233 1.123 5889782
0.058508303 -0.15602216 1.123 15262695
0.099464126 -0.15699729 1.123 1170174
0.052657485 -0.15407187 1.123 1170174
0.055582874 -0.15407187 1.123 15130593
0.058508303 -0.15407187 1.123 15459813
0.060458586 -0.15407187 1.123 1170174
0.09751384 -0.15407187 1.123 15722989
0.099464126 -0.15407187 1.123 15263980
0.046806633 -0.15114646 1.123 15921905
0.049732063 -0.15114646 1.123 4841721
0.052657485 -0.15114646 1.123 7526639
0.054607734 -0.1521216 1.123 1170174
0.060458586 -0.15114646 1.123 1170174
0.064359121 -0.15114646 1.123 16316406
0.0663094 -0.15017131 1.123 1170174
0.094913468 -0.15082142 1.123 6284283
0.09751384 -0.15114646 1.123 1170174
0.046806633 -0.14822106 1.123 15921133
0.049732059 -0.14822106 1.123 15197671
0.052657485 -0.14822106 1.123 12764122
0.060458586 -0.14822106 1.123 16250101
0.064359121 -0.14822106 1.123 16710648
0.0663094 -0.14822106 1.123 1170174
0.094588414 -0.14822106 1.123 16711161
0.09751384 -0.14822106 1.123 15263213
0.046806633 -0.14627075 1.123 15986923
0.049732059 -0.14627075 1.123 1170174
0.052657485 -0.14627075 1.123 12829144
0.061433725 -0.14627075 1.123 1170174
0.064359121 -0.14627075 1.123 1170174
0.067609593 -0.14562066 1.123 11465213
0.070209973 -0.14529561 1.123 16579836
0.072810337 -0.14497057 1.123 6284797
0.089712732 -0.14432046 1.123 1170174
0.091663025 -0.14529561 1.123 16711421
0.094588414 -0.14529561 1.123 1170174
0.061433725 -0.14237019 1.123 16315635
0.067284539 -0.14237019 1.123 16645629
0.070209973 -0.14237019 1.123 16579836
0.073135376 -0.14237019 1.123 8842237
0.076060787 -0.14237019 1.123 1170174
0.078986213 -0.14237019 1.123 8842237
0.082886755 -0.14237019 1.123 1170174
0.085812166 -0.14237019 1.123 16579836
0.088737592 -0.14237019 1.123 8907773
0.091663025 -0.14237019 1.123 16711421
0.094588414 -0.14237019 1.123 1170174
0.078986213 -0.1404199 1.123 1170174
0.083211802 -0.13976982 1.123 1170174
0.085812166 -0.13944477 1.123 16580093
0.088737592 -0.13944477 1.123 1170174
0.091663025 -0.13944477 1.123 8908017
0.094588414 -0.13944477 1.123 1170174
0.085812166 -0.13651936 1.123 16711396
0.088737592 -0.13651936 1.123 8908013
0.091663025 -0.13651936 1.123 1170174
0.094588414 -0.13651936 1.123 6798510
0.09751384 -0.13651936 1.123 12626540
0.052845046 -0.17615011 1.1270001 14473188
0.055780858 -0.17615011 1.1270001 7722992
0.050887816 -0.17223567 1.1270001 1170174
0.052845046 -0.17223567 1.1270001 1170174
0.054802243 -0.17223567 1.1270001 1170174
0.050887816 -0.17027842 1.1270001 1170174
0.052845046 -0.17027842 1.1270001 1170174
0.054802243 -0.17027842 1.1270001 1170174
0.10079701 -0.16929983 1.1270001 16315638
0.10177563 -0.16342816 1.1270001 8644602
0.10373282 -0.16440678 1.1270001 16184308
0.10177563 -0.16049233 1.1270001 1170174
0.10177563 -0.15755649 1.1270001 8578552
0.056107059 -0.15135862 1.1270001 1170174
0.058716699 -0.15168482 1.1270001 15722990
0.06263116 -0.15168482 1.1270001 1170174
0.099818401 -0.15168482 1.1270001 14475491
0.055780858 -0.14874899 1.1270001 14864857
0.058716699 -0.14874899 1.1270001 15920630
0.06263116 -0.14874899 1.1270001 16446708
0.099818401 -0.14874899 1.1270001 13883875
0.056107067 -0.14613935 1.1270001 1170174
0.058716699 -0.14581314 1.1270001 8512508
0.061652549 -0.1448345 1.1270001 1170174
0.06458836 -0.1448345 1.1270001 16711418
0.066545591 -0.1448345 1.1270001 1170174
0.097861171 -0.14581314 1.1270001 8182255
0.06458836 -0.14287731 1.1270001 16711419
0.06263116 -0.14092007 1.1270001 1170174
0.06458836 -0.14092007 1.1270001 1170174
0.06752421 -0.13994147 1.1270001 1170174
0.070460051 -0.13994147 1.1270001 16645885
0.073395878 -0.13994147 1.1270001 1170174
0.076331705 -0.13994147 1.1270001 16579836
0.079267547 -0.13896286 1.1270001 1170174
0.082203396 -0.13896286 1.1270001 1170174
0.079267547 -0.13700563 1.1270001 16711421
0.082203396 -0.13700563 1.1270001 16711422
0.084160589 -0.13700563 1.1270001 16711409
0.10410099 -0.16891864 1.131 16381429
0.10311893 -0.16695443 1.131 16250100
0.10410099 -0.16302609 1.131 16118005
0.10410099 -0.16007987 1.131 16052466
0.062853456 -0.13945608 1.131 1170174
0.0648176 -0.13945608 1.131 1170174
0.067763865 -0.13749188 1.131 8776158
0.07071013 -0.13749188 1.131 16711408
0.07365638 -0.13749188 1.131 8908027
0.07660263 -0.13749188 1.131 16711419
0.079548888 -0.13552774 1.131 8776958
0.08249516 -0.13552774 1.131 1170174
0.070897691 -0.13588724 1.1340001 15727074
0.073851749 -0.13588724 1.1340001 1170174
0.076805815 -0.13588724 1.1340001 16514808
