# .PCD v0.7 - Point Cloud Data file format
VERSION 0.7
FIELDS x y z rgba
SIZE 4 4 4 4
TYPE F F F U
COUNT 1 1 1 1
WIDTH 482
HEIGHT 1
VIEWPOINT 0 0 0 1 0 0 0
POINTS 482
DATA ascii
0.13726613 -0.19045675 0.98800004 12042640
0.13983989 -0.19045675 0.98800004 14802876
0.14241362 -0.19045675 0.98800004 14079427
0.14069781 -0.18788303 0.98800004 8331003
0.14241362 -0.18788303 0.98800004 13879467
0.13983989 -0.18530931 0.98800004 12234665
0.13653558 -0.18988773 0.99100006 9790114
0.13940398 -0.18931405 0.99100006 8331003
0.14456709 -0.19017455 0.99100006 10580187
0.13682242 -0.187593 0.99100006 9858776
0.13940398 -0.187593 0.99100006 8331003
0.14542761 -0.187593 0.99100006 12959151
0.13682242 -0.18587199 0.99100006 8331003
0.13940398 -0.18415092 0.99100006 8331003
0.14227237 -0.18472461 0.99100006 8331003
0.14456709 -0.18501145 0.99100006 8331003
0.14456709 -0.18242991 0.99100006 11906995
0.14673096 -0.19075027 0.99400002 9923288
0.14845721 -0.18988715 0.99400002 12826801
0.13464722 -0.18643467 0.99400002 4981344
0.14673096 -0.18643467 0.99400002 8331003
0.14845721 -0.18729778 0.99400002 8331003
0.13464722 -0.1847084 0.99400002 8331003
0.13637348 -0.1847084 0.99400002 8331003
0.13809974 -0.1847084 0.99400002 8331003
0.14673096 -0.1847084 0.99400002 8331003
0.14845721 -0.1847084 0.99400002 11972000
0.139826 -0.18298218 0.99400002 13159889
0.14212766 -0.18240675 0.99400008 9786342
0.14586784 -0.18211904 0.99400002 8331003
0.12774225 -0.17607714 0.99400002 8331003
0.13033164 -0.17607714 0.99400002 8331003
0.15063675 -0.19046026 0.99700004 12761771
0.13159072 -0.18699734 0.99700004 2949377
0.13332218 -0.18699734 0.99700004 917808
0.15063675 -0.18786305 0.99700004 8331003
0.13159072 -0.18526587 0.99700004 8331003
0.13332218 -0.18526587 0.99700004 8331003
0.13678508 -0.18353443 0.99700004 8331003
0.13851653 -0.18353443 0.99700004 13881560
0.14890528 -0.18353443 0.99700004 11248037
0.15121388 -0.18411158 0.9970001 9522914
0.15409964 -0.18353443 0.99700004 15855581
0.13678508 -0.18093723 0.99700004 16187116
0.13938227 -0.18093722 0.99700004 12027894
0.14313376 -0.18064865 0.9970001 10313714
0.14544237 -0.18007149 0.99700004 13353173
0.14803955 -0.18180296 0.99700004 10183890
0.12812778 -0.17834005 0.99700004 12701408
0.130725 -0.17834005 0.99700004 10508755
0.13332218 -0.17834005 0.99700004 14676436
0.13591933 -0.17834005 0.99700004 16186110
0.13938227 -0.17834005 0.99700004 16711422
0.14284518 -0.17834005 0.99700004 8331003
0.14544237 -0.17834005 0.99700004 14870772
0.13332218 -0.17660856 0.99700004 13883600
0.13591933 -0.17660856 0.99700004 12486635
0.13938227 -0.17660856 0.99700004 12488437
0.15282665 -0.19016501 1 10579407
0.15456334 -0.19016501 1 13814449
0.15282665 -0.18756002 1 8331003
0.15456334 -0.18756002 1 8331003
0.13111833 -0.1840867 1 8331003
0.13372335 -0.1840867 1 11296138
0.13546 -0.1840867 1 8331003
0.15282665 -0.18582334 1 8331003
0.15456334 -0.18582334 1 16118232
0.15630001 -0.18495502 1 12158707
0.12851332 -0.18148166 1 9606811
0.13111833 -0.18148166 1 8083911
0.13372335 -0.18148166 1 8331003
0.13546 -0.18148166 1 11371750
0.148485 -0.18061332 1 10316770
0.15195835 -0.18148166 1 10775782
0.15456334 -0.18148166 1 8331003
0.15630001 -0.18234999 1 8331003
0.14240669 -0.17714 1 8331003
0.14501166 -0.17714 1 12357370
0.148485 -0.17800832 1 11894764
0.15109003 -0.17887667 1 15134696
0.13372335 -0.17540334 1 8331003
0.13632834 -0.17540334 1 11494361
0.13980168 -0.17540334 1 12356845
0.1567689 -0.1907355 1.003 13024184
0.15763985 -0.18725175 1.003 8331003
0.15851079 -0.18463896 1.003 16117482
0.1611236 -0.18463896 1.003 12224497
0.16373642 -0.18463896 1.003 8331003
0.15793017 -0.1817358 1.003 8331003
0.1611236 -0.1820261 1.003 14007021
0.16373642 -0.18202612 1.003 12224243
0.16547829 -0.18289706 1.003 16184298
0.15154327 -0.17767142 1.003 8331003
0.15415607 -0.17854236 1.003 14206204
0.15763985 -0.17854236 1.003 12225016
0.16025268 -0.1794133 1.003 15986662
0.13673732 -0.17418766 1.003 10515170
0.1428339 -0.17592956 1.003 8331003
0.14544669 -0.17592956 1.003 12422908
0.14805952 -0.17592956 1.003 16383742
0.15154327 -0.17592956 1.003 16711422
0.1589849 -0.19043244 1.006 13419970
0.16073199 -0.19043244 1.006 13351856
0.1589849 -0.18868539 1.006 8331003
0.16073199 -0.18781182 1.006 8331003
0.16247906 -0.18693827 1.006 8331003
0.16713797 -0.18460885 1.006 13544174
0.16946743 -0.1834441 1.006 16184043
0.16684678 -0.181697 1.006 12224755
0.16946743 -0.181697 1.006 16184045
0.16073199 -0.17820282 1.006 16050417
0.16335261 -0.17907637 1.006 12092404
0.16684678 -0.17907637 1.006 8331003
0.16946743 -0.17994992 1.006 8331003
0.13976695 -0.17470866 1.006 14337217
0.14238758 -0.17470866 1.006 12357365
0.14588174 -0.17470866 1.006 12488444
0.14850236 -0.17470866 1.006 8331003
0.15083182 -0.17529103 1.006 13808637
0.15432599 -0.17587338 1.006 13874173
0.15782017 -0.17587338 1.006 11036924
0.16073199 -0.17645575 1.006 16382204
0.16247906 -0.17645575 1.006 16249844
0.13976695 -0.17296161 1.006 14801857
0.14238758 -0.17296161 1.006 12159726
0.14588174 -0.17296161 1.006 8331003
0.14850236 -0.17296161 1.006 16711422
0.15199655 -0.17296161 1.006 16711422
0.16280207 -0.18993577 1.008 14140862
0.16455263 -0.18730992 1.008 8331003
0.17155488 -0.18730992 1.008 15592936
0.17213839 -0.18439233 1.0080001 13478642
0.17213839 -0.18147472 1.0080001 8331003
0.16980435 -0.17855711 1.008 16249069
0.17155488 -0.17855711 1.008 16052720
0.15579984 -0.175056 1.008 8331003
0.16017625 -0.175056 1.008 8331003
0.16396911 -0.17563951 1.0080001 10904566
0.1663032 -0.17593127 1.008 15855597
0.16892906 -0.17593127 1.008 10244853
0.17155488 -0.17680657 1.008 8331003
0.14267066 -0.17155488 1.008 11962346
0.14529647 -0.17155488 1.008 8331003
0.15054816 -0.17330545 1.008 8331003
0.15492456 -0.17330545 1.008 12488444
0.15755041 -0.17330545 1.008 16711422
0.16017625 -0.17330545 1.008 16711422
0.16280207 -0.17330545 1.008 16711420
0.16504239 -0.19050106 1.011 14140606
0.17382123 -0.18962319 1.011 15129810
0.175577 -0.18962319 1.011 15130324
0.17908855 -0.18962319 1.011 15063758
0.16679814 -0.18786739 1.011 15527653
0.16972446 -0.18728215 1.011 10969845
0.17382123 -0.18698952 1.011 8331003
0.175577 -0.18698952 1.011 12157938
0.17791805 -0.18728215 1.011 8331003
0.175577 -0.18435585 1.011 16052978
0.17733279 -0.18435585 1.011 16053232
0.17382123 -0.18084432 1.011 8331003
0.175577 -0.18172219 1.011 16052979
0.17821066 -0.18172219 1.011 10244855
0.18084431 -0.18084432 1.011 16183789
0.17382123 -0.17821065 1.011 12093429
0.175577 -0.17821065 1.011 15987440
0.17821066 -0.17821066 1.011 14138605
0.18084431 -0.17821065 1.011 8331003
0.17294334 -0.17557698 1.011 15986671
0.175577 -0.17557698 1.011 16052975
0.17821068 -0.17557698 1.011 16118249
0.18084431 -0.17557698 1.011 16118249
0.14836256 -0.17206545 1.011 12488444
0.15187413 -0.17206545 1.011 12488444
0.15450774 -0.17206545 1.011 8331003
0.15714142 -0.17206545 1.011 12488444
0.16065297 -0.17206545 1.011 8331003
0.1632866 -0.17206545 1.011 16711421
0.16592026 -0.17294335 1.011 14468346
0.16943184 -0.17294335 1.011 14401784
0.17294334 -0.17294335 1.011 8331003
0.175577 -0.17294335 1.011 15920368
0.17821066 -0.17294335 1.011 12093427
0.18084431 -0.17294335 1.011 8331003
0.15450774 -0.17030972 1.011 16711422
0.15714142 -0.17030972 1.011 12488444
0.16094559 -0.16972446 1.011 8331003
0.1632866 -0.17030972 1.011 16711422
0.16592026 -0.17030972 1.011 16711165
0.16943184 -0.16943182 1.011 14534139
0.17294334 -0.16943184 1.011 12356857
0.175577 -0.16943182 1.011 16250869
0.17821068 -0.16943182 1.011 14007027
0.17294334 -0.16679816 1.011 16645371
0.17791805 -0.16562764 1.011 10970874
0.1672931 -0.19018586 1.0140001 14863816
0.16993457 -0.19018586 1.0140001 14864072
0.17257603 -0.19018586 1.0140001 14998225
0.17785899 -0.19018586 1.0140001 15129809
0.18138093 -0.19018586 1.0140001 15063503
0.17961997 -0.18666391 1.0140001 8331003
0.18138093 -0.18754438 1.0140001 12026862
0.18314192 -0.18754438 1.0140001 8331003
0.17961997 -0.18490291 1.0140001 15987439
0.18138093 -0.1840224 1.0140001 8331003
0.18372892 -0.1837289 1.0140002 10839285
0.18402241 -0.18138094 1.0140001 16117995
0.18666388 -0.18138094 1.0140001 16117739
0.18402243 -0.17873946 1.0140001 10244854
0.18725088 -0.17844598 1.0140002 10904822
0.18402241 -0.17521751 1.0140001 12224498
0.18754438 -0.17521751 1.0140001 10244854
0.19018583 -0.17521751 1.0140001 12158963
0.18402241 -0.17257603 1.0140001 12158705
0.18754438 -0.17257603 1.0140001 15986918
0.19018583 -0.17257603 1.0140001 15987178
0.14880282 -0.17081507 1.0140001 12488444
0.1514443 -0.17081507 1.0140001 8331003
0.15379226 -0.16964108 1.0140002 11102460
0.1576077 -0.16905408 1.0140001 12488444
0.1602492 -0.16905408 1.0140001 8331003
0.16377112 -0.16905408 1.0140001 16711422
0.16641261 -0.16905408 1.0140001 12488188
0.18138093 -0.16993457 1.0140001 12092660
0.18402243 -0.16993457 1.0140001 12027122
0.18754438 -0.16993457 1.0140001 8331003
0.19018583 -0.16993457 1.0140001 15789802
0.15496622 -0.16729313 1.0140001 16711422
0.1576077 -0.16641262 1.0140001 8331003
0.1602492 -0.16641262 1.0140001 16711422
0.16289064 -0.16641262 1.0140001 12488444
0.16641261 -0.16641262 1.0140001 10376955
0.16993459 -0.16641262 1.0140001 14534396
0.17257603 -0.16553211 1.0140001 8331003
0.175511 -0.16611913 1.0140002 13742330
0.17961997 -0.16729313 1.0140001 8331003
0.18138093 -0.16641262 1.0140001 16447733
0.18402241 -0.16641262 1.0140001 14270196
0.18754438 -0.16641262 1.0140001 12027124
0.19018583 -0.16553211 1.0140001 8331003
0.16289064 -0.16377117 1.0140001 16711422
0.16641261 -0.16289066 1.0140001 14599933
0.16993457 -0.16289066 1.0140001 12488444
0.17257603 -0.16289066 1.0140001 16645627
0.17521751 -0.16289066 1.0140001 12422394
0.17873949 -0.16289066 1.0140001 12422138
0.18138093 -0.16289066 1.0140001 16513787
0.18402241 -0.16289066 1.0140001 14402298
0.18754438 -0.16377117 1.0140001 16118515
0.17433701 -0.16024922 1.0140001 16711422
0.17785899 -0.16024922 1.0140001 16580092
0.18368375 -0.19074854 1.0170001 14735825
0.18544996 -0.18809925 1.0170001 12157931
0.18544996 -0.18544996 1.0170001 8331003
0.18721615 -0.18368374 1.0170001 16052201
0.18898235 -0.18103448 1.0170001 12224243
0.19074851 -0.18015136 1.0170001 16052462
0.19074851 -0.1783852 1.0170001 8331003
0.1925147 -0.17573589 1.0170001 8331003
0.14659375 -0.17132044 1.0170001 15919847
0.19310343 -0.17190918 1.0170001 10904565
0.15189235 -0.16955423 1.0170001 16711422
0.1925147 -0.16955423 1.0170001 15789544
0.15424725 -0.1666106 1.0170001 13874173
0.19074851 -0.16778807 1.0170001 15657963
0.1925147 -0.16690496 1.0170001 8331003
0.15836836 -0.16366696 1.0170001 11102460
0.1607233 -0.16337258 1.0170001 16711422
0.16337258 -0.16248947 1.0170001 12488444
0.18809925 -0.16248947 1.0170001 8331003
0.19074851 -0.16337258 1.0170001 12158964
0.16955425 -0.16072331 1.0170001 16711422
0.17220353 -0.16072331 1.0170001 16711422
0.17661901 -0.16072331 1.0170001 16645630
0.18103448 -0.16072331 1.0170001 16513787
0.18456686 -0.16072331 1.0170001 12291067
0.18809925 -0.16072331 1.0170001 16579836
0.19074851 -0.16072331 1.0170001 16645886
0.17220353 -0.15895709 1.0170001 8331003
0.17573591 -0.15895709 1.0170001 8331003
0.1783852 -0.15895709 1.0170001 16711421
0.18103448 -0.15895709 1.0170001 12422651
0.18544996 -0.15895709 1.0170001 8331003
0.18599701 -0.19131123 1.0200001 14405575
0.18776841 -0.19042552 1.0200001 13751491
0.18776841 -0.18776843 1.0200001 15919320
0.18776841 -0.18599701 1.0200001 15987175
0.19013028 -0.18481605 1.0200002 10839028
0.1913112 -0.1824542 1.0200001 15986668
0.19367307 -0.18127327 1.0200002 10839030
0.19426355 -0.17832094 1.0200002 13412850
0.19485401 -0.17536862 1.0200001 15986667
0.19662541 -0.17536862 1.0200001 15921130
0.1434834 -0.17182581 1.0200001 15396068
0.14525482 -0.17182581 1.0200001 15657939
0.19485401 -0.17359719 1.0200001 8331003
0.19662541 -0.17271149 1.0200001 12093169
0.15145472 -0.16916871 1.0200001 12357372
0.19485401 -0.16916871 1.0200001 12027120
0.15234041 -0.16651161 1.0200001 16056051
0.19485401 -0.16651161 1.0200001 15525866
0.15588319 -0.16474022 1.0200001 16711422
0.1576546 -0.1629688 1.0200001 8331003
0.19367307 -0.16414975 1.0200002 8331003
0.16474019 -0.16119742 1.0200001 16711422
0.16651161 -0.16119742 1.0200001 16711422
0.16887347 -0.16001648 1.0200002 13874173
0.18422559 -0.159426 1.0200001 8331003
0.18776841 -0.159426 1.0200001 8331003
0.19042552 -0.159426 1.0200001 12488444
0.1930826 -0.16119742 1.0200001 16645884
0.17271149 -0.15765458 1.0200001 12488444
0.17536861 -0.15765458 1.0200001 8331003
0.17802572 -0.15765458 1.0200001 12488444
0.1815685 -0.15765458 1.0200001 12422908
0.18599701 -0.15765458 1.0200001 16514814
0.18953982 -0.15765458 1.0200001 8331003
0.17536861 -0.15588321 1.0200001 16711422
0.17802572 -0.15588321 1.0200001 16711422
0.18068282 -0.15588321 1.0200001 8331003
0.17891142 -0.1514547 1.0200001 16711422
0.18068282 -0.15234041 1.0200001 8331003
0.17536861 -0.1470262 1.0200001 16711422
0.17891142 -0.14879762 1.0200001 16711421
0.18068282 -0.14879762 1.0200001 16711421
0.19098558 -0.19009727 1.023 13423570
0.19365048 -0.19009727 1.023 12302285
0.19128168 -0.18772849 1.023 8331003
0.19365048 -0.18743238 1.023 8331003
0.1954271 -0.18654406 1.023 15589340
0.19365048 -0.18476743 1.023 8331003
0.19631541 -0.18476743 1.023 12027634
0.19661152 -0.18239865 1.023 13347314
0.19957255 -0.18180643 1.023 10970358
0.19720373 -0.1785493 1.023 15921133
0.19986863 -0.1785493 1.023 10244855
0.20253353 -0.1785493 1.023 16117484
0.20431016 -0.17766099 1.023 16382186
0.19986863 -0.17499609 1.023 12092914
0.20253353 -0.17499608 1.023 16052199
0.20431016 -0.17588441 1.023 16252134
0.19986863 -0.17233118 1.023 12028398
0.20253353 -0.17233118 1.023 8331003
0.14923523 -0.17055456 1.023 8331003
0.15101185 -0.16877797 1.023 8331003
0.19720373 -0.16966626 1.023 15657443
0.19957255 -0.16996238 1.023 8331003
0.15101185 -0.16700134 1.023 15460066
0.15456508 -0.16522476 1.023 16711411
0.19720373 -0.16611305 1.023 15591395
0.19957255 -0.16581696 1.023 10313201
0.15456508 -0.16344813 1.023 8331003
0.15634167 -0.16344813 1.023 16711422
0.19631541 -0.16344813 1.023 12224241
0.19986863 -0.16344813 1.023 11370987
0.15811829 -0.16167153 1.023 16711422
0.1607832 -0.16078322 1.023 10376955
0.16344814 -0.16078322 1.023 12488444
0.16611303 -0.1598949 1.023 12488444
0.19365048 -0.1598949 1.023 8331003
0.19631541 -0.16078322 1.023 12225527
0.19898035 -0.16167153 1.023 8331003
0.16611303 -0.15811828 1.023 12488444
0.16996238 -0.15752609 1.023 11102460
0.17233118 -0.15634169 1.023 8331003
0.17410776 -0.15634169 1.023 8331003
0.18299082 -0.15634169 1.023 16711422
0.18476744 -0.15722999 1.023 8331003
0.18772846 -0.15693389 1.023 11036924
0.19128168 -0.15693389 1.023 11102460
0.19365048 -0.15722999 1.023 16711416
0.19631541 -0.15811828 1.023 15201517
0.19898035 -0.15811828 1.023 14008763
0.17233118 -0.15456505 1.023 8331003
0.17499608 -0.15456505 1.023 12488444
0.17854932 -0.15456505 1.023 8331003
0.18210253 -0.15456505 1.023 8331003
0.18476744 -0.15456505 1.023 16711422
0.18743236 -0.15456505 1.023 16711422
0.19009729 -0.15456505 1.023 16711421
0.17233118 -0.15278848 1.023 16711422
0.17499608 -0.15190016 1.023 12488444
0.177661 -0.15190016 1.023 8331003
0.18239865 -0.15160406 1.023 8331003
0.18476744 -0.15190016 1.023 16711422
0.18713626 -0.15219627 1.023 11102460
0.17233118 -0.14745863 1.023 8331003
0.17499608 -0.14834693 1.023 12488444
0.177661 -0.14923525 1.023 16711422
0.18299082 -0.14923525 1.023 8331003
0.18476744 -0.14923525 1.023 16711420
0.18743236 -0.14923525 1.023 8331003
0.17233118 -0.14568204 1.023 16710889
0.17499608 -0.14568204 1.023 16711403
0.19689113 -0.19065475 1.026 13947332
0.19956385 -0.19065475 1.026 15002561
0.20223656 -0.19065475 1.026 15596775
0.20490931 -0.19065475 1.026 16055796
0.19718811 -0.188279 1.026 16115161
0.19956385 -0.18798202 1.026 16513509
0.20223656 -0.18798202 1.026 16578797
0.20580022 -0.18798202 1.026 16513009
0.19956385 -0.18530926 1.026 16116976
0.20193958 -0.18471533 1.026 16447471
0.20580022 -0.18530926 1.026 16447474
0.20490931 -0.17461835 1.026 16183525
0.14610925 -0.17105471 1.026 8331003
0.14789104 -0.17105471 1.026 8331003
0.20312749 -0.17105471 1.026 15718868
0.14878196 -0.16927293 1.026 11896542
0.20223656 -0.16927293 1.026 11761377
0.14878196 -0.16749108 1.026 8331003
0.1514547 -0.16570929 1.026 8331003
0.15323654 -0.16570929 1.026 15789032
0.20223656 -0.16749108 1.026 14010565
0.14967288 -0.16214566 1.026 8331003
0.1514547 -0.16303656 1.026 8331003
0.15383048 -0.1627396 1.026 8331003
0.15680015 -0.16214566 1.026 8331003
0.20134565 -0.16214566 1.026 12499408
0.15501836 -0.16036381 1.026 8331003
0.15769106 -0.16036381 1.026 12488443
0.19956385 -0.16036381 1.026 14012364
0.15858197 -0.15858196 1.026 16711416
0.16036381 -0.15769106 1.026 16711422
0.16273959 -0.15798804 1.026 13874173
0.16660017 -0.15680017 1.026 12488444
0.16927291 -0.15680017 1.026 8331003
0.19689113 -0.15680017 1.026 10976486
0.19956385 -0.15680017 1.026 13939643
0.16036381 -0.15412742 1.026 12422908
0.16214564 -0.15412742 1.026 12488444
0.1663032 -0.1544244 1.026 11102460
0.16927291 -0.15412742 1.026 16711422
0.17105472 -0.15412742 1.026 12488444
0.19065477 -0.15323654 1.026 8331003
0.19303048 -0.1544244 1.026 13415413
0.16927291 -0.15145469 1.026 16711422
0.17194563 -0.15145469 1.026 12488444
0.18887293 -0.15145469 1.026 8331003
0.19065477 -0.15145469 1.026 15990512
0.19243655 -0.15145469 1.026 14869987
0.16927291 -0.14789104 1.026 8331003
0.17164867 -0.14907895 1.026 8331003
0.17461835 -0.1496729 1.026 16711422
0.17105472 -0.14610925 1.026 16448486
0.14489011 -0.17172159 1.0300001 16183789
0.1457845 -0.16993286 1.0300001 8331003
0.14667888 -0.16635533 1.0300001 16054515
0.14846763 -0.16635533 1.0300001 8331003
0.1502564 -0.16635533 1.0300001 8331003
0.14667888 -0.16456653 1.0300001 8331003
0.14846763 -0.16456653 1.0300001 8331003
0.1502564 -0.16456653 1.0300001 8331003
0.15562272 -0.15741147 1.0300001 8331003
0.15741146 -0.15741147 1.0300001 8331003
0.15920024 -0.15741147 1.0300001 8331003
0.16456655 -0.15741147 1.0300001 16711422
0.15562272 -0.15562269 1.0300001 8331003
0.15741146 -0.15562269 1.0300001 8331003
0.15920024 -0.15472832 1.0300001 12357360
0.16456655 -0.15472832 1.0300001 16711422
0.16814406 -0.15383394 1.0300001 8331003
0.19497557 -0.15383394 1.0300001 14802650
0.19676434 -0.15472832 1.0300001 14076619
0.19914937 -0.15502644 1.0300001 13287364
0.16009462 -0.15115078 1.0300001 11961836
0.16277778 -0.15204516 1.0300001 16449266
0.1663553 -0.15115079 1.0300001 16711415
0.16874032 -0.15085267 1.0300001 13874172
0.19497557 -0.15204516 1.0300001 13812430
0.19676434 -0.15204516 1.0300001 14008505
0.14531213 -0.16863382 1.033 8331003
0.1471061 -0.16863382 1.033 15727092
0.15697296 -0.1596639 1.033 8331003
0.16504587 -0.15248799 1.033 16580350
0.16683982 -0.14890005 1.033 15531748
0.16923182 -0.14770409 1.033 10840315
0.163726 -0.15113169 1.036 16182751
0.16552518 -0.15113169 1.036 8331003
0.16192681 -0.14933248 1.036 8331003
0.163726 -0.14843291 1.036 14341330
0.16612491 -0.14813305 1.036 12623585
