# .PCD v0.7 - Point Cloud Data file format
VERSION 0.7
FIELDS x y z rgba
SIZE 4 4 4 4
TYPE F F F U
COUNT 1 1 1 1
WIDTH 466
HEIGHT 1
VIEWPOINT 0 0 0 1 0 0 0
POINTS 466
DATA ascii
0.14529647 -0.18730992 1.008 15134690
0.14792231 -0.18730992 1.008 8562132
0.14836256 -0.18962319 1.011 13811910
0.15187413 -0.18962319 1.011 12037810
0.15450774 -0.18962319 1.011 8562132
0.15626353 -0.19050106 1.011 7774121
0.15977508 -0.18962319 1.011 7557969
0.14397316 -0.18611164 1.011 15466233
0.1457289 -0.18611164 1.011 14214620
0.14836256 -0.18611164 1.011 4289454
0.15187413 -0.18698952 1.011 8429233
0.15450774 -0.18698952 1.011 6041108
0.14397316 -0.18435585 1.011 8562132
0.1457289 -0.18435585 1.011 13687766
0.14836256 -0.18435585 1.011 6377632
0.15187413 -0.18435585 1.011 5048146
0.1514443 -0.19194682 1.0140001 8562132
0.15408576 -0.19194682 1.0140001 12236795
0.1584882 -0.19106634 1.0140001 8344426
0.1602492 -0.19194682 1.0140001 9459028
0.16289064 -0.19106634 1.0140001 11254980
0.1576077 -0.18754439 1.0140001 7558507
0.1602492 -0.18754438 1.0140001 8616849
0.16201018 -0.18842486 1.0140001 8562132
0.14616133 -0.1831419 1.0140001 13226706
0.14880282 -0.1831419 1.0140001 8562132
0.1514443 -0.1831419 1.0140001 7235716
0.15437925 -0.1837289 1.0140002 8808581
0.1576077 -0.18490291 1.0140001 9732833
0.1602492 -0.18490291 1.0140001 12565984
0.14968331 -0.18138094 1.0140001 8562132
0.1514443 -0.18138094 1.0140001 9805741
0.16690496 -0.1925147 1.0170001 14210254
0.16690496 -0.19074854 1.0170001 15061449
0.16366695 -0.18780491 1.0170001 8562132
0.16690496 -0.18898234 1.0170001 8562132
0.15807399 -0.18368374 1.0170001 8562132
0.1607233 -0.18368374 1.0170001 8562132
0.16307822 -0.18486123 1.0170001 10005971
0.15100925 -0.18015136 1.0170001 10394566
0.15454161 -0.18103448 1.0170001 9678802
0.1571909 -0.18191758 1.0170001 8562132
0.1607233 -0.18191758 1.0170001 15924983
0.17005441 -0.19042552 1.0200001 10921661
0.17182581 -0.18953981 1.0200001 13223614
0.16651161 -0.18776843 1.0200001 13681090
0.16916871 -0.18776843 1.0200001 14338490
0.16474019 -0.18422557 1.0200001 8562132
0.16651161 -0.18511128 1.0200001 8562132
0.16916871 -0.18599701 1.0200001 8562132
0.1576546 -0.18068278 1.0200001 16711410
0.16001648 -0.18127327 1.0200002 11256544
0.16296881 -0.18156849 1.0200001 8562132
0.17233118 -0.19187391 1.023 12032131
0.17410776 -0.19009727 1.023 13024448
0.17233118 -0.18743238 1.023 8562132
0.17410776 -0.18832068 1.023 8562132
0.16966626 -0.18476743 1.023 12564408
0.17233118 -0.18476743 1.023 14008773
0.14923523 -0.18121421 1.023 12170698
0.16581693 -0.18239865 1.023 10071766
0.16966626 -0.18299083 1.023 8562132
0.15456508 -0.1785493 1.023 11384016
0.15722999 -0.1785493 1.023 12636641
0.16048712 -0.17884541 1.023 11256546
0.16344814 -0.17943762 1.023 16121598
0.16522473 -0.17943762 1.023 8562132
0.17461835 -0.1870911 1.026 14736860
0.17283656 -0.18352747 1.026 8562132
0.17461835 -0.18530926 1.026 15330520
0.16749108 -0.18174563 1.026 13551840
0.16927291 -0.18174563 1.026 8562132
0.17105472 -0.18174563 1.026 8562132
0.14967288 -0.17907292 1.026 11060196
0.1514547 -0.17907292 1.026 8562132
0.15323654 -0.17907292 1.026 10786253
0.16303656 -0.17818199 1.026 8562132
0.16689715 -0.17877595 1.026 8562132
0.1514547 -0.1764002 1.026 8562132
0.15412745 -0.17550927 1.026 11055056
0.15769106 -0.1764002 1.026 15325863
0.16036381 -0.1764002 1.026 16383742
0.17768416 -0.19020554 1.0300001 13351872
0.1770879 -0.18782051 1.0300001 8562132
0.17529912 -0.18424298 1.0300001 15266005
0.16993284 -0.18066545 1.0300001 8562132
0.172616 -0.18155982 1.0300001 8562132
0.16367216 -0.17708792 1.0300001 12571113
0.1663553 -0.17708792 1.0300001 16580350
0.16903844 -0.17798229 1.0300001 11913442
0.17172161 -0.17887665 1.0300001 8562132
0.160989 -0.17529912 1.0300001 16056062
0.17879967 -0.18717156 1.033 8562132
0.17401576 -0.18119165 1.033 8562132
0.17042778 -0.17760371 1.033 8562132
0.17401576 -0.17939766 1.033 8562132
0.15786994 -0.1758097 1.033 8562132
0.15966392 -0.1758097 1.033 8562132
0.16325189 -0.1758097 1.033 8562132
0.16594285 -0.1758097 1.033 12636649
0.16863382 -0.1758097 1.033 8562132
0.18171786 -0.18801501 1.036 11452114
0.18351705 -0.18891461 1.036 14276309
0.17632028 -0.18351702 1.036 15201513
0.17901908 -0.18441664 1.036 10533854
0.18171786 -0.18441662 1.036 12636648
0.17632028 -0.18171786 1.036 15924222
0.17901908 -0.18171786 1.036 16711420
0.18171786 -0.18171786 1.036 16711421
0.17272194 -0.1781195 1.036 8562132
0.17572057 -0.17871921 1.036 13951216
0.17901906 -0.17901906 1.036 8562132
0.18171786 -0.17901906 1.036 16711421
0.15473007 -0.17452113 1.036 8562132
0.15742885 -0.17452113 1.036 11519443
0.16012761 -0.17452113 1.036 8562132
0.163726 -0.17452113 1.036 16711422
0.16642477 -0.17452113 1.036 8562132
0.17032301 -0.17512086 1.036 8562132
0.17272194 -0.17632028 1.036 16711422
0.1754207 -0.17632028 1.036 16711422
0.17811948 -0.17632028 1.036 16711422
0.18404849 -0.18765724 1.039 8562132
0.18495068 -0.18495065 1.039 12505319
0.18495066 -0.18134187 1.039 10599390
0.18495068 -0.1786353 1.039 16645886
0.1623957 -0.17502649 1.039 8562132
0.17322208 -0.17502649 1.039 16711422
0.17592868 -0.17502649 1.039 8562132
0.17863527 -0.17502649 1.039 16711422
0.18134189 -0.17592868 1.039 12636649
0.18464994 -0.1762294 1.039 8562132
0.15878691 -0.17322206 1.039 8562132
0.1605913 -0.17322206 1.039 15525608
0.16329791 -0.17322206 1.039 8562132
0.16690668 -0.17322206 1.039 12636649
0.16961329 -0.17322206 1.039 16711422
0.17231989 -0.17322206 1.039 12636649
0.17592868 -0.17231989 1.039 8562132
0.17863527 -0.17231989 1.039 16711422
0.18134189 -0.17231989 1.039 12636649
0.18404849 -0.17322206 1.039 8562132
0.17863527 -0.16961329 1.039 16711422
0.18729427 -0.18729427 1.0420001 12175070
0.1900087 -0.18638949 1.0420001 8562132
0.18819909 -0.18457986 1.0420001 8562132
0.1900087 -0.18457986 1.0420001 8562132
0.18819909 -0.18186547 1.0420001 12636649
0.1900087 -0.18277028 1.0420001 8562132
0.18819909 -0.17824626 1.0420001 12571113
0.1900087 -0.17734145 1.0420001 8562132
0.18729427 -0.17553186 1.0420001 12571112
0.16376941 -0.17191266 1.0420001 8562132
0.16648383 -0.17191266 1.0420001 8562132
0.16919822 -0.17191266 1.0420001 12636649
0.17281744 -0.17191266 1.0420001 12636649
0.18457991 -0.17191266 1.0420001 8562132
0.18638948 -0.17372224 1.0420001 8562132
0.17372225 -0.17010301 1.0420001 16711422
0.17553186 -0.16919823 1.0420001 12636649
0.17794466 -0.16889665 1.0420001 13951216
0.18186548 -0.16919824 1.0420001 8562132
0.18457991 -0.17010301 1.0420001 16711422
0.17824626 -0.16648382 1.0420001 12636649
0.18096067 -0.16648382 1.0420001 16711422
0.18874092 -0.18874091 1.0450001 8562132
0.19237058 -0.18692613 1.0450001 8562132
0.193278 -0.18420389 1.0450001 8562132
0.19055575 -0.18148166 1.0450001 8562132
0.19327798 -0.18148166 1.0450001 12636648
0.19600019 -0.18148166 1.0450001 8562132
0.19055575 -0.17966686 1.0450001 16711422
0.19327798 -0.17875946 1.0450001 8562132
0.19600019 -0.17875946 1.0450001 12636649
0.15425943 -0.17422239 1.0450001 16711422
0.15698165 -0.17422239 1.0450001 12243433
0.18874092 -0.17422239 1.0450001 16711420
0.19055575 -0.17512982 1.0450001 12636648
0.193278 -0.17512982 1.0450001 12571113
0.19600019 -0.17603724 1.0450001 16645886
0.16151868 -0.1724076 1.0450001 15590633
0.18783352 -0.1724076 1.0450001 16711422
0.19418541 -0.1724076 1.0450001 16580093
0.16605574 -0.17059277 1.0450001 12636649
0.16998784 -0.16998784 1.0450001 8562132
0.17240758 -0.16968536 1.0450001 12636649
0.17422241 -0.16877797 1.0450001 8562132
0.18511133 -0.16877797 1.0450001 16711422
0.18783352 -0.16968536 1.0450001 8562132
0.19358048 -0.1693829 1.0450001 8562132
0.19600019 -0.16968536 1.0450001 16579838
0.17512983 -0.16696313 1.0450001 16711422
0.17966685 -0.16514833 1.0450001 8562132
0.18420392 -0.16696313 1.0450001 12636649
0.1911028 -0.18928276 1.0480001 15854058
0.19474287 -0.18746276 1.0480001 15726838
0.19656287 -0.18746276 1.0480001 15069171
0.1983829 -0.18746276 1.0480001 14477286
0.19656287 -0.18473271 1.0480001 12571113
0.1983829 -0.18473271 1.0480001 16512759
0.1983829 -0.18109265 1.0480001 12636648
0.1983829 -0.17836261 1.0480001 16711420
0.19656287 -0.17472255 1.0480001 16645630
0.19929293 -0.17563258 1.0480001 10599390
0.15834233 -0.17290255 1.0480001 15856617
0.16016233 -0.17290255 1.0480001 8562132
0.1638024 -0.1710825 1.0480001 16186878
0.1911028 -0.17199253 1.0480001 12636648
0.19292285 -0.17199253 1.0480001 12571112
0.19656287 -0.17290255 1.0480001 16645630
0.19929293 -0.17199254 1.0480001 10533854
0.16653246 -0.1692625 1.0480001 12636649
0.16926247 -0.1692625 1.0480001 8562132
0.1911028 -0.1692625 1.0480001 16711422
0.19929293 -0.1692625 1.0480001 16645371
0.20202297 -0.1692625 1.0480001 8562132
0.16926247 -0.16744246 1.0480001 16711422
0.17199251 -0.16744246 1.0480001 12636649
0.1756326 -0.16562246 1.0480001 12636649
0.17836261 -0.16562246 1.0480001 8562132
0.18200268 -0.16562246 1.0480001 16711422
0.18473272 -0.16562246 1.0480001 8562132
0.18746273 -0.16653246 1.0480001 8562132
0.19019279 -0.16653246 1.0480001 14673907
0.19383286 -0.16653246 1.0480001 12636649
0.19656287 -0.16653246 1.0480001 16711422
0.19929293 -0.16653246 1.0480001 8562132
0.20202297 -0.16653246 1.0480001 16579580
0.17654261 -0.1638024 1.0480001 8562132
0.17836261 -0.1638024 1.0480001 16711422
0.18109265 -0.1638024 1.0480001 12636649
0.18473272 -0.1638024 1.0480001 12636649
0.18746273 -0.1638024 1.0480001 16711422
0.19019279 -0.1638024 1.0480001 16711422
0.19474287 -0.1638024 1.0480001 16711422
0.19656287 -0.1638024 1.0480001 16711422
0.19929293 -0.1638024 1.0480001 16711164
0.20202297 -0.1638024 1.0480001 16711165
0.17836261 -0.16198236 1.0480001 16711422
0.18109265 -0.16198236 1.0480001 12636649
0.18473272 -0.16107236 1.0480001 8562132
0.18746273 -0.16107236 1.0480001 12636649
0.19474287 -0.16107236 1.0480001 8562132
0.19656287 -0.16107236 1.0480001 12636649
0.1983829 -0.16198236 1.0480001 8562132
0.19474287 -0.1583423 1.0480001 16711422
0.20096706 -0.18817826 1.052 14542041
0.20279405 -0.18817826 1.052 14606825
0.20462103 -0.18817826 1.052 15200250
0.20096706 -0.18452431 1.052 16514044
0.20096706 -0.18178385 1.052 8562132
0.20279405 -0.18178385 1.052 12570855
0.2055345 -0.18178384 1.052 12570599
0.20096706 -0.17904337 1.052 16711163
0.20279405 -0.17812991 1.052 12636648
0.20462103 -0.17812991 1.052 16711421
0.20279405 -0.17538942 1.052 16711421
0.20462103 -0.17538942 1.052 16711422
0.16260062 -0.1717355 1.052 8562132
0.20279405 -0.172649 1.052 12636648
0.20523003 -0.17234449 1.052 13951216
0.16442761 -0.16990855 1.052 16252414
0.16625458 -0.16808155 1.052 8562132
0.16808157 -0.16808155 1.052 8562132
0.2055345 -0.16899505 1.052 10533854
0.20827496 -0.16990855 1.052 8562132
0.21010193 -0.16990855 1.052 8562132
0.16990852 -0.16625459 1.052 16711422
0.172649 -0.16625459 1.052 12636649
0.2055345 -0.16625459 1.052 16448501
0.16899505 -0.16442761 1.052 8562132
0.17264898 -0.16351411 1.052 14673907
0.17538945 -0.16351411 1.052 8562132
0.17721644 -0.16260061 1.052 8562132
0.19091871 -0.16260061 1.052 12636649
0.19365919 -0.16351411 1.052 12636649
0.20096706 -0.16260061 1.052 8562132
0.20279405 -0.16260061 1.052 16711422
0.2055345 -0.16351411 1.052 8562132
0.20827496 -0.16351411 1.052 8562132
0.21010193 -0.16442761 1.052 14866921
0.17538945 -0.16077366 1.052 16711422
0.17812991 -0.16077366 1.052 12636649
0.18178385 -0.16077366 1.052 12636649
0.19091871 -0.16077366 1.052 12636649
0.19365919 -0.16077366 1.052 8562132
0.20005357 -0.16077366 1.052 8562132
0.20279405 -0.16077366 1.052 16711422
0.17904337 -0.15894666 1.052 8562132
0.18208836 -0.15833768 1.052 13951216
0.18452431 -0.15803319 1.052 16711422
0.18726477 -0.15803319 1.052 12636649
0.19091873 -0.15803319 1.052 14673907
0.19365919 -0.15803319 1.052 12636649
0.19670413 -0.1577287 1.052 11256546
0.19914009 -0.15894666 1.052 8562132
0.18452431 -0.15529272 1.052 16711422
0.18726477 -0.15529272 1.052 16711422
0.19000523 -0.15529272 1.052 16711422
0.19548617 -0.15529272 1.052 8562132
0.19421145 -0.19054705 1.0550001 15395306
0.19604364 -0.19054705 1.0550001 14933218
0.19970798 -0.19054705 1.0550001 12499912
0.20245627 -0.18688269 1.0550001 8562132
0.20520455 -0.18688269 1.0550001 16580345
0.20764744 -0.18749343 1.0550001 13689071
0.20337237 -0.18505053 1.0550001 16448250
0.20520455 -0.18505053 1.0550001 16579833
0.20886891 -0.18138616 1.0550001 16711422
0.20764744 -0.17833254 1.0550001 11256545
0.21070109 -0.1777218 1.0550001 16711422
0.20795281 -0.17497352 1.0550001 8562132
0.21131182 -0.17527889 1.0550001 16645886
0.15756777 -0.17222522 1.0550001 8562132
0.16031605 -0.17222522 1.0550001 12570336
0.20886891 -0.17222522 1.0550001 8562132
0.21161719 -0.17222522 1.0550001 12571112
0.1648965 -0.16856088 1.0550001 16318206
0.20886891 -0.16856088 1.0550001 8562132
0.21161719 -0.16947699 1.0550001 12571112
0.16672869 -0.16672871 1.0550001 8562132
0.16856089 -0.16672871 1.0550001 8562132
0.20886891 -0.16672871 1.0550001 8562132
0.21161719 -0.16672871 1.0550001 15921137
0.16672869 -0.1648965 1.0550001 8562132
0.16947697 -0.16306429 1.0550001 12636649
0.17222522 -0.16123214 1.0550001 16711422
0.17466816 -0.16001068 1.0550001 11256546
0.1777218 -0.15939994 1.0550001 8562132
0.20245627 -0.15939994 1.0550001 8562132
0.20520455 -0.16123214 1.0550001 16252670
0.2079528 -0.16123214 1.0550001 11909076
0.21070109 -0.16123214 1.0550001 14866917
0.17588961 -0.15756777 1.0550001 8562132
0.17863789 -0.15756777 1.0550001 12636649
0.18138614 -0.15756777 1.0550001 8562132
0.19970798 -0.15756777 1.0550001 16711422
0.20154017 -0.15756777 1.0550001 8562132
0.17588961 -0.15573557 1.0550001 16711422
0.17863789 -0.15481949 1.0550001 10599390
0.18138614 -0.15573557 1.0550001 16711422
0.18382907 -0.15451413 1.0550001 13951216
0.1877988 -0.15390342 1.0550001 8562132
0.19054706 -0.15390342 1.0550001 8562132
0.19329536 -0.15481949 1.0550001 12636649
0.19726507 -0.15451413 1.0550001 8562132
0.19970798 -0.15573557 1.0550001 8562132
0.19604364 -0.15207121 1.0550001 16711422
0.19843847 -0.19108889 1.0580001 13684698
0.20211327 -0.19108889 1.0580001 12560566
0.21130024 -0.18741409 1.0580001 16711422
0.20854414 -0.18557675 1.0580001 12636647
0.21130024 -0.18557675 1.0580001 16711422
0.20946284 -0.18006454 1.0580001 16711166
0.21313764 -0.1745524 1.0580001 16645886
0.21497504 -0.17271498 1.0580001 16711421
0.15801583 -0.17087761 1.0580001 16514814
0.16107816 -0.17026512 1.0580001 8562132
0.16352801 -0.16995889 1.0580001 8562132
0.16536541 -0.16628411 1.0580001 8562132
0.16628411 -0.163528 1.0580001 12636649
0.17026512 -0.16107816 1.0580001 11256546
0.17271498 -0.15985321 1.0580001 8562132
0.20578808 -0.15985321 1.0580001 15859454
0.20854414 -0.15985321 1.0580001 8562132
0.21130024 -0.15985321 1.0580001 15591140
0.17271498 -0.15801583 1.0580001 16711422
0.17455238 -0.15709713 1.0580001 8562132
0.20333821 -0.1567909 1.0580001 8562132
0.20578808 -0.15709713 1.0580001 11981287
0.20823792 -0.15740338 1.0580001 10400730
0.17638978 -0.15434106 1.0580001 16711422
0.18190195 -0.15434106 1.0580001 16711422
0.20027587 -0.15434106 1.0580001 16711422
0.20303197 -0.15434106 1.0580001 16578039
0.18006454 -0.15250364 1.0580001 8562132
0.18557675 -0.15250364 1.0580001 16711422
0.18741414 -0.15250364 1.0580001 8562132
0.1901702 -0.15250364 1.0580001 16711422
0.19415125 -0.15189119 1.0580001 11256546
0.19660109 -0.15066627 1.0580001 16711420
0.19935717 -0.15250364 1.0580001 12636649
0.1910889 -0.14147928 1.0580001 8562132
0.15477867 -0.16951951 1.0610001 16711422
0.15754259 -0.16951951 1.0610001 12505577
0.16030651 -0.16951951 1.0610001 8562132
0.213742 -0.16951951 1.0610001 16580346
0.15477867 -0.16767694 1.0610001 16711422
0.15754259 -0.16675562 1.0610001 8562132
0.16030651 -0.16675562 1.0610001 15791602
0.16307038 -0.16675562 1.0610001 10402521
0.1578497 -0.16337749 1.0610001 13754352
0.16030651 -0.16307038 1.0610001 15330033
0.16307038 -0.1630704 1.0610001 12505058
0.16675562 -0.1621491 1.0610001 8562132
0.2118994 -0.16399167 1.0610001 14863591
0.15846391 -0.16030648 1.0610001 15923966
0.16030651 -0.16030648 1.0610001 15134959
0.16307038 -0.16030648 1.0610001 15922407
0.16675562 -0.16030648 1.0610001 16580350
0.16951953 -0.16030648 1.0610001 8562132
0.16030651 -0.15846391 1.0610001 8562132
0.16307038 -0.15846391 1.0610001 12241632
0.16583429 -0.15846391 1.0610001 8562132
0.16951953 -0.15846391 1.0610001 16711422
0.17228341 -0.15754259 1.0610001 12636649
0.17320471 -0.15477869 1.0610001 8562132
0.17504732 -0.15477869 1.0610001 16711422
0.20637159 -0.15477869 1.0610001 15258338
0.17688993 -0.15293607 1.0610001 8562132
0.17873254 -0.15201479 1.0610001 16711422
0.18180352 -0.15170769 1.0610001 8562132
0.18426034 -0.15201479 1.0610001 16711422
0.18702425 -0.1510935 1.0610001 12636649
0.19070944 -0.1510935 1.0610001 12636649
0.19347335 -0.1510935 1.0610001 8562132
0.19992246 -0.1510935 1.0610001 8562132
0.20268637 -0.15201479 1.0610001 11912924
0.20452899 -0.15293607 1.0610001 8562132
0.17873254 -0.14740829 1.0610001 16711409
0.18149643 -0.14832959 1.0610001 12636649
0.18426034 -0.14832959 1.0610001 16711421
0.18671715 -0.1480225 1.0610001 11256546
0.19163075 -0.14740829 1.0610001 16711416
0.19715858 -0.14832959 1.0610001 16710890
0.19900115 -0.14832959 1.0610001 12372453
0.17873254 -0.14556566 1.0610001 16055780
0.18149643 -0.14556566 1.0610001 16252413
0.18426034 -0.14556566 1.0610001 16383740
0.18702425 -0.14556566 1.0610001 16383740
0.19715858 -0.14556566 1.0610001 14350012
0.19900115 -0.14556566 1.0610001 8562132
0.18180352 -0.14310887 1.0610001 8562132
0.18426034 -0.14280176 1.0610001 9415080
0.18702425 -0.14280176 1.0610001 10335435
0.19040236 -0.14310887 1.0610001 8562132
0.19347335 -0.14372309 1.0610001 8562132
0.19623727 -0.14372309 1.0610001 12231781
0.19900115 -0.14372309 1.0610001 12164177
0.16353148 -0.15706412 1.064 8562132
0.1663032 -0.15706412 1.064 16121342
0.16876698 -0.15768008 1.064 11256546
0.17184663 -0.15706412 1.064 8562132
0.17246257 -0.15398444 1.064 13951216
0.17554228 -0.15336849 1.064 8562132
0.17369445 -0.15152071 1.064 8562132
0.17554228 -0.15152071 1.064 8562132
0.1773901 -0.15152071 1.064 8562132
0.17554228 -0.14967288 1.064 8562132
0.178314 -0.14967288 1.064 16711422
0.18847698 -0.14967288 1.064 16711422
0.19032477 -0.14874899 1.064 12636649
0.19340448 -0.14905696 1.064 11256546
0.19586822 -0.14874899 1.064 8562132
0.19032477 -0.14597726 1.064 8562132
0.19309649 -0.14597726 1.064 8562132
0.19586822 -0.14597726 1.064 8562132
0.16321887 -0.15487246 1.0680001 11975132
0.16600102 -0.15487246 1.0680001 13818852
0.17001967 -0.15518159 1.0680001 13951213
0.16321887 -0.15209034 1.0680001 15465205
0.16507363 -0.15209034 1.0680001 14214893
0.16971055 -0.15209034 1.0680001 12503517
0.17249267 -0.15209034 1.0680001 16711411
0.16925728 -0.15437749 1.0710001 8562132
0.1678662 -0.15294479 1.074 8562132
