# .PCD v0.7 - Point Cloud Data file format
VERSION 0.7
FIELDS x y z rgba
SIZE 4 4 4 4
TYPE F F F U
COUNT 1 1 1 1
WIDTH 440
HEIGHT 1
VIEWPOINT 0 0 0 1 0 0 0
POINTS 440
DATA ascii
0.02638807 -0.17032301 1.036 8823697
0.028786995 -0.17002314 1.036 6558787
0.030586189 -0.17002314 1.036 4990296
0.023389414 -0.16642478 1.036 11184280
0.025188608 -0.16642478 1.036 9936799
0.031485766 -0.16642478 1.036 1712695
0.023389414 -0.16372602 1.036 9534853
0.025188608 -0.16372602 1.036 9139071
0.031485766 -0.16372602 1.036 4940943
0.023389414 -0.16192681 1.036 8158090
0.025188608 -0.16102719 1.036 9404320
0.031485766 -0.16102719 1.036 10728121
0.025188608 -0.15742883 1.036 13291209
0.023457143 -0.16961329 1.039 12171941
0.025261546 -0.16961329 1.039 10146738
0.032479126 -0.16961329 1.039 9669960
0.03428353 -0.16961329 1.039 13804896
0.021652773 -0.16600449 1.039 11050639
0.027968153 -0.1669067 1.039 6842230
0.031576943 -0.16690671 1.039 2643249
0.03428353 -0.16690671 1.039 4476973
0.036990136 -0.16600449 1.039 4268100
0.021652773 -0.16329792 1.039 9274757
0.027968153 -0.16329792 1.039 8486050
0.03428353 -0.16329792 1.039 5257319
0.036990136 -0.16329792 1.039 6635348
0.022554958 -0.16059129 1.039 9273218
0.027968153 -0.16059129 1.039 11908277
0.03428353 -0.16059129 1.039 9484751
0.036990136 -0.16059129 1.039 9539537
0.023457143 -0.15878692 1.039 10856618
0.027968153 -0.15878692 1.039 14736079
0.030674759 -0.15878692 1.039 14999763
0.040598929 -0.1569825 1.039 14935268
0.025261546 -0.15517813 1.039 14868959
0.040598929 -0.15517813 1.039 15397345
0.019302476 -0.16889665 1.0420001 10987402
0.021715295 -0.16919823 1.0420001 11515286
0.019905681 -0.16648382 1.0420001 11249293
0.019905681 -0.16376942 1.0420001 9669506
0.019905681 -0.16015019 1.0420001 8422005
0.021715295 -0.1592454 1.0420001 9537941
0.032572906 -0.1592454 1.0420001 13689041
0.034382522 -0.1592454 1.0420001 12432072
0.022620084 -0.15743577 1.0420001 11843261
0.028048908 -0.15743577 1.0420001 15003626
0.030763328 -0.15743577 1.0420001 14349795
0.018148167 -0.16605574 1.0450001 10527372
0.018148167 -0.16333351 1.0450001 9142644
0.018148167 -0.16061127 1.0450001 8350822
0.019962991 -0.15788902 1.0450001 10125213
0.022685207 -0.15607424 1.0450001 13487318
0.028129663 -0.15607424 1.0450001 15265253
0.032061756 -0.15667918 1.0450001 13223119
0.034481511 -0.15788902 1.0450001 12168129
0.025407428 -0.15425941 1.0450001 14740203
0.016380232 -0.16562246 1.0480001 9934754
0.016380232 -0.1638024 1.0480001 9146512
0.014560199 -0.16107236 1.0480001 10461868
0.016380232 -0.16107236 1.0480001 8224136
0.019110285 -0.1574323 1.0480001 10985631
0.025480367 -0.15288225 1.0480001 14673644
0.029120436 -0.15288225 1.0480001 12561110
0.030940467 -0.15288225 1.0480001 11578575
0.014615773 -0.16808155 1.052 11120801
0.016442753 -0.16808155 1.052 10720918
0.0137023 -0.16625459 1.052 11449521
0.013397809 -0.16381861 1.052 11842221
0.010961846 -0.16077366 1.052 12829884
0.012788828 -0.16077366 1.052 12828089
0.014006792 -0.15833768 1.052 12106698
0.016442753 -0.15803319 1.052 10790319
0.018269734 -0.15711971 1.052 11904416
0.016442753 -0.15529272 1.052 12895683
0.019183226 -0.15437925 1.052 14411218
0.02375064 -0.15529272 1.052 14870766
0.028013594 -0.15468374 1.052 13950433
0.031058561 -0.15529272 1.052 12625608
0.025577622 -0.15163878 1.052 14937582
0.010993107 -0.16856088 1.0550001 10785407
0.012825298 -0.16856088 1.0550001 11575696
0.0054965359 -0.16672871 1.0550001 11181206
0.0073287268 -0.16672871 1.0550001 11249552
0.010077012 -0.16672871 1.0550001 11450006
0.0054965359 -0.16398039 1.0550001 12499887
0.0073287268 -0.16398039 1.0550001 12565422
0.010077012 -0.16398039 1.0550001 12565938
0.0054965359 -0.16031605 1.0550001 13288376
0.0073287268 -0.16031605 1.0550001 13025976
0.0097716469 -0.16001068 1.0550001 12763065
0.0054965359 -0.15756777 1.0550001 13157565
0.0073287268 -0.15756777 1.0550001 12960957
0.010077012 -0.15756777 1.0550001 12762299
0.012825298 -0.15756777 1.0550001 12697283
0.010077012 -0.15573557 1.0550001 12893885
0.013741376 -0.15481949 1.0550001 13355723
0.016489644 -0.15390342 1.0550001 14079956
0.022596933 -0.15451413 1.0550001 15265007
0.016489644 -0.15207121 1.0550001 14606821
0.019237928 -0.15207121 1.0550001 15263469
0.027482752 -0.15207121 1.0550001 13949406
0.0091869673 -0.16904019 1.0580001 10063224
0.0036748007 -0.16628411 1.0580001 11511204
0.0036748007 -0.163528 1.0580001 12698809
0.0018374004 -0.16169062 1.0580001 13419706
0.0036748007 -0.16077191 1.0580001 13288633
0.0042872559 -0.1567909 1.0580001 13223615
0.0073495666 -0.15617841 1.0580001 13026242
0.0045934836 -0.15434106 1.0580001 13157310
0.0073495666 -0.15434106 1.0580001 13026246
0.010105668 -0.15434106 1.0580001 13091270
0.0073495666 -0.15250364 1.0580001 13288138
0.010105668 -0.15158495 1.0580001 13816274
0.01378045 -0.15250364 1.0580001 14209497
0.018373935 -0.15066627 1.0580001 15263472
0.023886099 -0.15250364 1.0580001 15855085
0.0018426104 -0.16583429 1.0610001 11841192
-0 -0.1621491 1.0610001 13419964
0.00092130521 -0.16030648 1.0610001 13420734
0.0018426104 -0.15754259 1.0610001 13355203
0.0018426104 -0.15477869 1.0610001 13354690
0.0018426104 -0.1510935 1.0610001 13420483
0.0046065086 -0.15201479 1.0610001 13288383
0.0073704063 -0.1510935 1.0610001 13615813
0.013819525 -0.1510935 1.0610001 14803425
0.016583424 -0.1510935 1.0610001 15197929
0.020268643 -0.1510935 1.0610001 15395568
0.022111256 -0.15293607 1.0610001 15724269
0.0036852208 -0.14925086 1.0610001 13420743
0.0073704063 -0.14925086 1.0610001 13880768
0.010441425 -0.14863668 1.0610001 14604771
0.014126621 -0.14863668 1.0610001 15198442
0.016583424 -0.14925086 1.0610001 15461870
0.018426035 -0.14925086 1.0610001 15527410
0.023953831 -0.14740829 1.0610001 16251374
0.0018478205 -0.16815104 1.064 10917272
-0.0018477852 -0.16260758 1.064 13419452
-0.0018477852 -0.16075975 1.064 13551554
-0.0036956409 -0.15706412 1.064 13552068
-0.0018477852 -0.15706412 1.064 13617607
-0 -0.15798804 1.064 13486280
-0.0036956409 -0.1542924 1.064 13486277
-0.0018477852 -0.1542924 1.064 13420741
0.0006159402 -0.15398443 1.064 13354947
-0.0018477852 -0.15152071 1.064 13420742
-0 -0.15152071 1.064 13420998
0.022173773 -0.15152071 1.064 15658224
0.02402156 -0.15152071 1.064 15986929
0.00092391024 -0.14874898 1.064 13289416
0.0049274983 -0.14844103 1.064 13486793
0.0073912465 -0.14782509 1.064 14210527
0.0092390664 -0.14782509 1.064 14801640
0.012934708 -0.14782509 1.064 15263983
0.016630312 -0.14782509 1.064 15789553
0.019710014 -0.14844103 1.064 15724788
0.022173773 -0.14782509 1.064 15987958
0.0012318804 -0.14536133 1.064 13355211
0.0046195337 -0.14505336 1.064 15062229
0.0073912465 -0.14505336 1.064 15922686
0.010162977 -0.14505336 1.064 16120830
0.013858601 -0.14597726 1.064 15789042
0.016630312 -0.14597726 1.064 15988723
0.018478133 -0.14597726 1.064 16054776
0.02402156 -0.14597726 1.064 15332583
-0.0018547318 -0.16507362 1.0680001 12433590
0.00061825576 -0.16569188 1.0680001 12237490
-0.0092738001 -0.1632189 1.0680001 13023918
-0.0074190688 -0.1632189 1.0680001 13287088
-0.0046369 -0.1632189 1.0680001 13484217
-0.0074190688 -0.16136409 1.0680001 13421249
-0.0046369 -0.16043673 1.0680001 13552067
-0.0018547318 -0.15950938 1.0680001 13748420
-0.0074190688 -0.1576546 1.0680001 13551812
-0.0055642659 -0.1576546 1.0680001 13551812
-0.0074190688 -0.15487246 1.0680001 13551813
-0.0055642659 -0.15487246 1.0680001 13551813
-0.0092738001 -0.15116295 1.0680001 13486538
-0.0074190688 -0.15116295 1.0680001 13486540
-0.0046369005 -0.15116295 1.0680001 13420744
-0.0018547318 -0.15023556 1.0680001 13158344
0.022257134 -0.15023556 1.0680001 15855860
0.025039252 -0.15116295 1.0680001 15661554
-0.0092738001 -0.14838082 1.0680001 13420742
-0.0074190688 -0.14838082 1.0680001 13354948
-0.0046369 -0.14838082 1.0680001 13223878
-0.0018547318 -0.14838082 1.0680001 12961736
-0.0098920446 -0.14528957 1.0680001 13288642
-0.0074190688 -0.14559868 1.0680001 13288637
-0.0046369 -0.14559868 1.0680001 13354948
-0.0018547318 -0.14559868 1.0680001 13355210
-0 -0.14467131 1.0680001 13421519
0.0139107 -0.14467131 1.0680001 16250360
0.016692834 -0.14467131 1.0680001 16250870
0.020402368 -0.14652604 1.0680001 16120824
0.022257134 -0.14652604 1.0680001 15725561
-0.0046369 -0.14281651 1.0680001 13421001
-0.0018547318 -0.14281651 1.0680001 13617870
0.0009273836 -0.14281651 1.0680001 13684944
0.0046369 -0.14281651 1.0680001 15129559
0.007419033 -0.14281651 1.0680001 16118782
0.010201184 -0.14281651 1.0680001 16645886
0.014838066 -0.14281651 1.0680001 16448254
0.00061825576 -0.14034353 1.0680001 14013141
0.0043277782 -0.14034353 1.0680001 14671331
0.007419033 -0.14096178 1.0680001 15788526
0.0092738001 -0.14096178 1.0680001 16711414
-0.0018599416 -0.16739731 1.0710001 11511715
-0.011159792 -0.16367736 1.0710001 12498860
-0.0092998501 -0.16088741 1.0710001 13420991
-0.0074399086 -0.15995744 1.0710001 13552066
-0.0099198306 -0.15685748 1.0710001 13618113
-0.01022982 -0.15437749 1.0710001 13552324
-0.011159792 -0.15158756 1.0710001 13486535
0.026039572 -0.15065756 1.0710001 15068405
0.02789955 -0.15065756 1.0710001 14077408
-0.013019805 -0.14879762 1.0710001 13420997
-0.011159792 -0.14879762 1.0710001 13420999
0.026039572 -0.14879762 1.0710001 15000805
0.02789955 -0.14879762 1.0710001 13750492
-0.013639785 -0.14569768 1.0710001 13420993
-0.011159792 -0.14693762 1.0710001 13354950
0.0185997 -0.14507769 1.0710001 16317430
0.026039572 -0.14693762 1.0710001 14607318
-0.013019805 -0.14321768 1.0710001 13354432
-0.010229821 -0.14228772 1.0710001 13288900
-0.0074399086 -0.14228772 1.0710001 13354439
-0.004649925 -0.14135775 1.0710001 13552588
-0.0018599416 -0.14135775 1.0710001 13749713
0.011159828 -0.14135775 1.0710001 16711422
0.013949776 -0.14228772 1.0710001 16580350
0.016739724 -0.14321768 1.0710001 16381945
0.0185997 -0.14321768 1.0710001 16381941
-0.0074399086 -0.13949774 1.0710001 13553354
-0.004649925 -0.13949774 1.0710001 13618383
-0.0018599416 -0.13949774 1.0710001 13948627
0.0018599771 -0.13949774 1.0710001 14278112
0.0055798958 -0.13949774 1.0710001 15065061
0.0074398732 -0.13949774 1.0710001 15854815
0.010229839 -0.13949774 1.0710001 16711414
-0.0018599416 -0.13763776 1.0710001 14145493
0.00092998857 -0.13763776 1.0710001 14407899
0.004649925 -0.13763776 1.0710001 15066087
0.0074398732 -0.13763776 1.0710001 15986666
-0.019584376 -0.16600101 1.074 11577520
-0.0046629505 -0.16600101 1.074 12237487
-0.022382174 -0.16320324 1.074 13092039
-0.019584376 -0.16320324 1.074 12631747
-0.016786648 -0.16413584 1.074 10725809
-0.013988851 -0.16320324 1.074 12039855
-0.011191052 -0.16227064 1.074 12961725
-0.0186518 -0.1604055 1.074 13948098
-0.013988851 -0.1604055 1.074 13353913
-0.011191052 -0.1604055 1.074 13486269
-0.0186518 -0.15667513 1.074 13552068
-0.016786648 -0.1576077 1.074 13420735
-0.013988851 -0.15760772 1.074 13487037
-0.011191052 -0.15854029 1.074 13552830
-0.019584376 -0.15480992 1.074 13486283
-0.016786648 -0.15480992 1.074 13488072
-0.013988851 -0.15480992 1.074 13486789
-0.0186518 -0.15201217 1.074 13420745
-0.016786648 -0.15201217 1.074 13421000
-0.013988851 -0.15201217 1.074 13486790
0.027977701 -0.15294479 1.074 14406623
-0.0186518 -0.14921442 1.074 13421252
-0.016786648 -0.14921442 1.074 13420995
-0.014921427 -0.14828181 1.074 13420993
0.027977701 -0.14734922 1.074 13947864
0.022382174 -0.14548406 1.074 15397622
0.025179921 -0.14548406 1.074 14341333
-0.013988851 -0.14268628 1.074 13289152
0.013056275 -0.14175372 1.074 16711422
0.016786614 -0.14175372 1.074 16579320
-0.010258476 -0.13988851 1.074 13487305
-0.0074607488 -0.1380233 1.074 13684941
-0.0046629505 -0.1380233 1.074 13749713
0.010258494 -0.1380233 1.074 16711417
0.014299709 -0.13926677 1.0740001 16580350
0.016786614 -0.13988851 1.074 16449271
-0.0037303744 -0.13615815 1.074 14275284
-0.0018651516 -0.13615815 1.074 14342358
0.0046629505 -0.13615815 1.074 15197670
0.0074607134 -0.13615815 1.074 16053749
0.0037303744 -0.13429295 1.074 15065070
-0.0093606338 -0.16661926 1.0780001 11646110
-0.0074885353 -0.16661926 1.0780001 11909024
-0.024337633 -0.16287501 1.0780001 13687764
-0.01684917 -0.16287501 1.0780001 11976638
-0.024337633 -0.16006684 1.0780001 14803161
-0.022465535 -0.16006684 1.0780001 14605781
-0.019969333 -0.15975481 1.0780001 14143941
-0.01684917 -0.1610029 1.0780001 13288125
-0.024337633 -0.15725866 1.0780001 14802135
-0.022465535 -0.15725866 1.0780001 14211794
-0.020593366 -0.15725866 1.0780001 13618891
-0.025273718 -0.15445045 1.0780001 14605526
-0.022465535 -0.15445045 1.0780001 14014669
-0.020593366 -0.15351442 1.0780001 13486539
-0.025273718 -0.15164225 1.0780001 14343128
-0.022465535 -0.15164225 1.0780001 13816780
-0.020593366 -0.15164225 1.0780001 13487050
-0.028081901 -0.14977016 1.0780001 14998999
-0.024961691 -0.14914611 1.0780001 14014163
-0.022465535 -0.14883408 1.0780001 13618630
-0.019969333 -0.14852206 1.0780001 13355970
-0.01684917 -0.147898 1.0780001 13421503
-0.024337633 -0.1460259 1.0780001 13751506
-0.022465535 -0.1460259 1.0780001 13487558
-0.019345302 -0.14540187 1.0780001 13224129
-0.01684917 -0.14508983 1.0780001 13289663
0.020593401 -0.1460259 1.0780001 16447990
0.025273699 -0.14415376 1.0780001 14015180
0.028081901 -0.14508983 1.0780001 14276304
-0.01684917 -0.14228165 1.0780001 13026752
-0.014976999 -0.14228165 1.0780001 13158079
0.018721268 -0.14228165 1.0780001 16380915
-0.013728934 -0.13978545 1.0780001 13223620
-0.010296683 -0.13853735 1.0780001 13618381
0.013104901 -0.13853735 1.0780001 16711422
0.016849134 -0.13853735 1.0780001 16316150
-0.010296683 -0.13666525 1.0780001 13684689
-0.0074885353 -0.13666525 1.0780001 14012881
-0.0056163659 -0.13666525 1.0780001 14208210
0.00093606691 -0.13666525 1.0780001 14408923
0.010296701 -0.13666525 1.0780001 16711419
0.01404095 -0.13666525 1.0780001 16449278
-0.0093606338 -0.1347931 1.0780001 13947347
-0.0074885353 -0.13385706 1.0780001 14603218
-0.0046803169 -0.13385706 1.0780001 15199979
-0.0018720982 -0.13385706 1.0780001 15069172
0.00093606691 -0.13385706 1.0780001 15002612
0.0049923332 -0.13354504 1.0780001 15858425
0.0074884994 -0.13385706 1.0780001 16317691
0.010296701 -0.13385706 1.0780001 16645885
0.01404095 -0.13385706 1.0780001 16317693
0.016849134 -0.13292101 1.0780001 15331572
-0.0074885353 -0.13104884 1.0780001 15260123
-0.0046803169 -0.13104884 1.0780001 16709078
-0.0018720982 -0.13104884 1.0780001 16711401
0.00093606691 -0.13104884 1.0780001 16711421
0.0046803169 -0.13104884 1.0780001 16711420
0.0074884994 -0.13104884 1.0780001 16711422
-0.0074885353 -0.1273046 1.0780001 14277079
-0.0056163659 -0.12543251 1.0780001 14343124
-0.030037358 -0.14830959 1.0810001 14736595
-0.028160051 -0.14830959 1.0810001 14933718
-0.026282743 -0.14830959 1.0810001 14344666
-0.030037358 -0.1464323 1.0810001 14802390
-0.028160051 -0.1464323 1.0810001 14868442
-0.02565695 -0.14518073 1.0810001 13950685
-0.022528054 -0.14455493 1.0810001 13156808
-0.020650676 -0.14455493 1.0810001 12828868
0.020650713 -0.14455493 1.0810001 16316660
0.022528054 -0.14455493 1.0810001 15134451
-0.022528054 -0.14267762 1.0810001 12891583
-0.019712022 -0.14267762 1.0810001 12499904
0.020650713 -0.14267762 1.0810001 16248559
0.022528054 -0.14267762 1.0810001 14871275
0.025344035 -0.14267762 1.0810001 13682893
-0.019712022 -0.13986157 1.0810001 12038331
-0.016270269 -0.13954869 1.0810001 13092034
0.01971204 -0.13986157 1.0810001 15328747
0.022528054 -0.14080025 1.0810001 14278883
0.025344035 -0.13986157 1.0810001 13353420
-0.015644474 -0.1364198 1.0810001 13224135
-0.013141371 -0.13610691 1.0810001 13487054
-0.011263992 -0.13516822 1.0810001 13750740
0.016896024 -0.13610691 1.0810001 15593204
0.01971204 -0.13610691 1.0810001 15197158
0.024405362 -0.13704558 1.0810001 12634319
-0.015018679 -0.13329092 1.0810001 13224137
-0.013141371 -0.13329092 1.0810001 13750736
-0.010325338 -0.13329092 1.0810001 13816278
0.01971204 -0.13329092 1.0810001 14738405
-0.013141371 -0.1304749 1.0810001 13750728
-0.010012453 -0.13078779 1.0810001 13948376
-0.0075093755 -0.12953624 1.0810001 14801380
-0.0046933419 -0.12953624 1.0810001 15460538
-0.0018773081 -0.12953624 1.0810001 15728341
0.00093867193 -0.12953624 1.0810001 16318206
0.0046933419 -0.12953624 1.0810001 16645886
0.0075093396 -0.12953624 1.0810001 16711422
0.010325355 -0.1304749 1.0810001 16514302
0.013141371 -0.1304749 1.0810001 16117238
0.015644461 -0.13078779 1.0810001 15591919
0.018773368 -0.13141355 1.0810001 14606828
-0.013141371 -0.12765887 1.0810001 13485747
-0.010325338 -0.12765887 1.0810001 14275518
-0.0046933419 -0.12765887 1.0810001 14210761
-0.0018773081 -0.12765887 1.0810001 14801628
0.00093867193 -0.12765887 1.0810001 15985138
0.0046933419 -0.12765887 1.0810001 16645877
0.0075093396 -0.12765887 1.0810001 16711413
0.010325355 -0.12765887 1.0810001 16315895
0.013141371 -0.12765887 1.0810001 15134196
0.015957352 -0.12765887 1.0810001 15330284
-0.013141371 -0.12578158 1.0810001 12565409
-0.010325338 -0.12578158 1.0810001 13420964
0.0056319959 -0.1248429 1.0810001 15329260
0.0075093396 -0.12578158 1.0810001 15985644
0.010012466 -0.12515579 1.0810001 15855855
-0.025437832 -0.1422634 1.085 13687253
-0.022611415 -0.14132126 1.085 12628150
-0.025437832 -0.13943695 1.085 13622224
-0.022611415 -0.13943695 1.085 12364722
0.022611415 -0.13943695 1.085 13752031
-0.025437832 -0.13755269 1.085 13686222
-0.022611415 -0.13755269 1.085 12366511
-0.019470919 -0.13692459 1.085 11906988
-0.016958579 -0.13566838 1.085 13157558
0.022611415 -0.13661054 1.085 13753049
-0.018842833 -0.13378413 1.085 11975060
-0.016958579 -0.13378413 1.085 12698286
-0.015074253 -0.13095769 1.085 12830140
-0.011305671 -0.13001557 1.085 13947092
0.016958542 -0.13001557 1.085 15332332
-0.015074253 -0.12813126 1.085 12232625
-0.0075371624 -0.126247 1.085 14013387
-0.0037685812 -0.126247 1.085 14802910
-0.0018842546 -0.126247 1.085 15262946
0.0009421453 -0.126247 1.085 15656936
0.0037685812 -0.126247 1.085 15788524
-0.0047107083 -0.12436269 1.085 14867122
-0.0018842546 -0.12436269 1.085 15721932
0.0009421453 -0.12436269 1.085 15330277
0.0037685812 -0.12436269 1.085 15066601
0.0075371265 -0.12436269 1.085 15262702
-0.025508169 -0.1360435 1.0880001 13753040
-0.022673937 -0.1360435 1.0880001 12302785
-0.020784399 -0.1360435 1.0880001 11188146
-0.019839667 -0.13320929 1.0880001 11511210
-0.01700547 -0.13226452 1.0880001 12237745
-0.01700547 -0.13037506 1.0880001 11646131
-0.01700547 -0.12848555 1.0880001 11056572
-0.02463113 -0.13452394 1.0910001 14084307
-0.022736454 -0.13357657 1.0910001 12830931
-0.020841708 -0.13262922 1.0910001 11386554
-0.019894371 -0.13073455 1.0910001 12306104
-0.019894371 -0.12883982 1.0910001 13027786
0.011368227 -0.12505041 1.0910001 15856878
