# .PCD v0.7 - Point Cloud Data file format
VERSION 0.7
FIELDS x y z rgba
SIZE 4 4 4 4
TYPE F F F U
COUNT 1 1 1 1
WIDTH 945
HEIGHT 1
VIEWPOINT 0 0 0 1 0 0 0
POINTS 945
DATA ascii
-0.0033274661 -0.09649615 0.95800006 10381158
-0.0016637014 -0.09649615 0.95800006 10381158
0.00083186652 -0.09649615 0.95800006 10381158
0.0033274661 -0.09649615 0.95800006 10381158
0.0016689431 -0.10013621 0.96100003 12563980
-0.010013595 -0.096798331 0.96100003 10381158
-0.0075102281 -0.096798331 0.96100003 12426834
-0.0050067976 -0.096798331 0.96100003 10381158
0.00083447155 -0.098467246 0.96100003 12296509
0.0041723419 -0.098467246 0.96100003 12362307
-0.0072320765 -0.094573073 0.96100008 10381158
-0.0050067976 -0.094294921 0.96100003 13020743
0.0016724165 -0.10201703 0.96300006 12171013
0.0050172172 -0.10201703 0.96300006 12302342
-0 -0.1003446 0.96300006 12564751
0.0041810251 -0.1003446 0.96300006 12694798
0.0075258417 -0.1003446 0.96300006 10381158
-0.010034434 -0.098672166 0.96300006 12430090
-0.007525858 -0.098672166 0.96300006 11635520
-0.0041810251 -0.098672166 0.96300006 11964490
-0.0016723846 -0.098672166 0.96300006 10381158
0.0075258417 -0.098672166 0.96300006 10381158
0.023486674 -0.11491698 0.96600002 8353416
0.025164301 -0.11407816 0.96600002 10381158
0.023486674 -0.11240055 0.96600002 10381158
0.025164301 -0.11240055 0.96600002 9550764
0.025164301 -0.10988411 0.96600002 10381158
0.0016776264 -0.10569008 0.96600002 11907728
0.0041940501 -0.10569008 0.96600002 11111797
0.0075492868 -0.10569008 0.96600002 11111794
0.025164301 -0.10652888 0.96600002 10381158
0.0005592088 -0.10345324 0.96600002 10846045
0.0039144512 -0.10345324 0.96600002 10381158
0.0075492868 -0.10317364 0.96600002 11575354
0.010065727 -0.10233484 0.96600002 10381158
0.025164301 -0.10401244 0.96600002 12236343
0.031035963 -0.10233484 0.96600002 11505209
0.034391217 -0.10233484 0.96600002 11505210
-0.0041940501 -0.1006572 0.96600002 12367149
-0.0016775945 -0.1006572 0.96600002 12564255
0.010065727 -0.1006572 0.96600002 12959520
0.035230029 -0.1006572 0.96600002 13290017
0.036907654 -0.1006572 0.96600002 13027873
0.010065727 -0.098979555 0.96600002 10381158
0.023559613 -0.1228466 0.96900004 10381158
0.013462627 -0.11779808 0.96900004 8816740
0.0168283 -0.11779808 0.96900004 8226418
0.018511137 -0.11779808 0.96900004 10381158
0.023559613 -0.11863951 0.96900004 10381158
0.026925286 -0.11779808 0.96900004 10381158
0.028608123 -0.11863951 0.96900004 5076646
0.013462627 -0.11443243 0.96900004 10381158
0.015986882 -0.11443243 0.96900004 8024188
0.019352555 -0.11527386 0.96900004 9334387
0.021876778 -0.11527386 0.96900004 7232384
0.026364341 -0.11555433 0.96900004 8479611
0.028608123 -0.11527386 0.96900004 6057890
0.031132348 -0.11527386 0.96900004 6714256
0.010938404 -0.11106677 0.96900004 10381158
0.013462627 -0.1119082 0.96900004 10532522
0.015986882 -0.1119082 0.96900004 10134418
0.019352555 -0.1119082 0.96900004 10265749
0.022437721 -0.11162772 0.96900004 10657428
0.026925286 -0.1119082 0.96900004 9933448
0.028608123 -0.1119082 0.96900004 10993580
0.031132346 -0.1119082 0.96900004 10588809
0.033656601 -0.1119082 0.96900004 9670029
-0 -0.10938397 0.96900004 11386018
0.0042070751 -0.10938397 0.96900004 11779502
0.0075727319 -0.10938397 0.96900004 11975329
0.010938404 -0.10938397 0.96900004 12105886
0.013462627 -0.10938397 0.96900004 12171434
0.015986882 -0.10938397 0.96900004 12171420
0.019352555 -0.10938397 0.96900004 12105883
0.022718195 -0.10938397 0.96900004 11243397
0.026925286 -0.10938397 0.96900004 12237755
0.028608123 -0.10938397 0.96900004 12237999
0.031132346 -0.10938397 0.96900004 12237990
0.033656601 -0.10938397 0.96900004 10381158
-0.0033656729 -0.10601831 0.96900004 11776415
-0.0016828044 -0.10601831 0.96900004 11776668
0.00056094548 -0.10714018 0.96900004 10381158
0.0042070751 -0.10770112 0.96900004 11112319
0.0075727319 -0.10770112 0.96900004 11112058
0.010938404 -0.10685971 0.96900004 10381158
0.013462627 -0.10685971 0.96900004 11974278
0.015986882 -0.10685971 0.96900004 11177582
0.019352555 -0.10685971 0.96900004 11177590
0.022718195 -0.10685971 0.96900004 10779503
0.026925286 -0.10685971 0.96900004 10381158
0.028608123 -0.10685971 0.96900004 12039811
0.031132348 -0.10685971 0.96900004 11177845
0.033656601 -0.10685971 0.96900004 10381158
-0.0042070751 -0.10349406 0.96900004 10779223
-0.0016828044 -0.10349406 0.96900004 11907896
0.011218878 -0.10377453 0.96900004 11376715
0.013462627 -0.10433546 0.96900004 11972925
0.015986882 -0.10349406 0.96900004 11706696
0.018511137 -0.10349406 0.96900004 10381158
0.021876778 -0.10265265 0.96900004 10381158
0.026925286 -0.10433546 0.96900004 12236597
0.028608123 -0.10433546 0.96900004 12236097
0.031132346 -0.10433546 0.96900004 12039496
0.034498021 -0.10433546 0.96900004 12039740
0.037022274 -0.10349406 0.96900004 10381158
0.011779823 -0.10012837 0.96900004 11703361
0.013462627 -0.099286951 0.96900004 14738998
0.015986882 -0.10012837 0.96900004 11107928
0.019352555 -0.10012837 0.96900004 14146611
0.010149087 -0.13870411 0.97400004 10381158
0.016069375 -0.13870411 0.97400004 10706528
0.0084575666 -0.13616684 0.97400004 7630216
0.010994847 -0.13616684 0.97400004 7497350
0.013532094 -0.13616684 0.97400004 7832985
0.016069375 -0.13616684 0.97400004 10711665
0.019452414 -0.13532108 0.97400004 10381158
0.0050745271 -0.13362956 0.97400004 4618658
0.0076031238 -0.13349235 0.97300005 4749482
0.010994846 -0.13362956 0.97400004 4026027
0.013532094 -0.13362956 0.97400004 7173547
0.016069375 -0.13362956 0.97400004 10455948
0.018606653 -0.13362956 0.97400004 10365796
0.0045106979 -0.13137421 0.9740001 6451091
0.0075996504 -0.13088997 0.97250009 7499146
0.010972269 -0.13082311 0.97200006 10381158
0.013504308 -0.13082311 0.97200006 6056363
0.016069375 -0.13109228 0.97400004 10381158
0.019452414 -0.13109228 0.97400004 9925764
0.021989662 -0.13024652 0.97400004 9544856
0.0045106979 -0.12742734 0.9740001 6319764
0.007596177 -0.12744704 0.97200006 5664410
0.010972269 -0.12744704 0.97200006 7367302
0.013504308 -0.12744704 0.97200006 3960999
0.01604506 -0.12751304 0.97250009 6058389
0.019442862 -0.12764415 0.97350001 9070452
0.022835422 -0.12770927 0.97400004 10381158
0.03213875 -0.12855504 0.97400004 10716286
0.0042287833 -0.12432622 0.97400004 5991829
0.007596177 -0.12407093 0.97200006 5401232
0.010972269 -0.12407093 0.97200006 6777473
0.013504308 -0.12407093 0.97200006 4353431
0.016036376 -0.12407093 0.97200006 5795966
0.019422891 -0.12413519 0.97250009 7105138
0.022553502 -0.12460814 0.9740001 6055048
0.025372701 -0.12348048 0.97400004 3827357
0.027852669 -0.12322693 0.97200006 9467266
0.031228732 -0.12322693 0.97200006 8744323
0.034641296 -0.1233537 0.97300005 10381158
0.0042287833 -0.1209432 0.97400004 6516328
0.007596177 -0.12153886 0.97200006 5271410
0.01097227 -0.12153886 0.97200006 6189417
0.013504308 -0.12153886 0.97200006 7043182
0.016036376 -0.12153886 0.97200006 7964010
0.019412469 -0.12153886 0.97200006 7441263
0.022788532 -0.12153886 0.97200006 2909075
0.025372701 -0.12178895 0.97400004 2582690
0.027608378 -0.12114175 0.97333336 8810362
0.031228732 -0.12153886 0.97200006 6844292
0.034934793 -0.12114175 0.97333336 8941176
0.037213307 -0.12009746 0.97400004 10381158
0.0042287833 -0.11840592 0.97400004 9145442
0.007596177 -0.11900682 0.97200006 9403996
0.01097227 -0.11900682 0.97200006 10381158
0.013504308 -0.11985085 0.97200006 7897162
0.015755035 -0.11928817 0.97200006 9663076
0.01969381 -0.11928817 0.97200006 7108209
0.021944508 -0.11900682 0.97200006 10381158
0.025320601 -0.11900682 0.97200006 2844326
0.031228732 -0.11900682 0.97200006 7630980
0.034347799 -0.11880653 0.97266674 10381158
0.037213307 -0.11840592 0.97400004 5535394
0.00084575993 -0.11502289 0.97400004 3234983
0.0042261784 -0.11580962 0.97350001 7824504
0.007596177 -0.11563075 0.97200006 6905472
0.01097227 -0.11563075 0.97200006 9528683
0.013504308 -0.11647478 0.97200006 6913918
0.016036376 -0.11647478 0.97200006 8614773
0.03462306 -0.11569066 0.97250009 7826308
0.037751667 -0.11550801 0.97333336 8415357
0.00084489159 -0.11242832 0.97350001 9798797
0.0042201001 -0.11225466 0.97200006 9474975
0.007596177 -0.11225466 0.97200006 9607326
0.01097227 -0.1130987 0.97200006 9340811
0.035448845 -0.11225466 0.97200006 10730164
0.038020842 -0.11237015 0.97300005 9926777
-0.0039445534 -0.1087466 0.97333336 10846328
-0.0016897509 -0.10899147 0.97300005 11112066
0.0016880465 -0.10972261 0.97200006 11517354
0.035448845 -0.10887858 0.97200006 12171939
0.03800087 -0.10893503 0.97250009 11375759
0.040596314 -0.10825685 0.97400004 10381158
-0.0067660795 -0.10656536 0.97400004 11776670
-0.005064107 -0.10634654 0.97200006 10381158
0.035448845 -0.10634654 0.97200006 12039793
0.038020842 -0.10645595 0.97300005 11242859
0.040596314 -0.10656536 0.97400004 12301941
-0.006752186 -0.10381448 0.97200006 10381158
0.013504308 -0.10297047 0.97200006 12565249
0.020256493 -0.10381448 0.97200006 12368696
0.022788532 -0.10465848 0.97200006 11243087
0.038824908 -0.10381448 0.97200006 10381158
0.040512957 -0.10381448 0.97200006 12236574
-0.0076048765 -0.10138661 0.97300005 11177288
0.013504308 -0.1012824 0.97200006 13157147
0.038824908 -0.1012824 0.97200006 12829225
0.040512957 -0.1012824 0.97200006 10381158
0.023754122 -0.159492 0.97700006 10381158
0.023754122 -0.15694693 0.97700006 10381158
0.02545085 -0.15609854 0.97700006 7703204
0.02545085 -0.15440185 0.97700006 7506341
0.02714758 -0.15440185 0.97700006 7440544
0.019512329 -0.15100835 0.97700006 9467517
0.023754122 -0.15100835 0.97700006 7047084
0.02545085 -0.1527051 0.97700006 7373478
0.02714758 -0.15100835 0.97700006 6838180
0.019795118 -0.14874609 0.97700012 10260629
0.023188544 -0.14874609 0.97700012 10381158
0.02545085 -0.14846329 0.97700006 10381158
0.02714758 -0.14846329 0.97700006 10381158
0.0050901575 -0.14422147 0.97700006 10381158
0.0084836176 -0.14422147 0.97700006 3763110
0.010180347 -0.14422147 0.97700006 10381158
0.020360693 -0.14506984 0.97700006 10005166
0.023754122 -0.14506984 0.97700006 10058879
0.02545085 -0.14506984 0.97700006 10389650
0.027995944 -0.14506984 0.97700006 11052689
0.0050901575 -0.14252478 0.97700006 4617127
0.0076352526 -0.14252478 0.97700006 4681896
0.011028712 -0.14252478 0.97700006 5141158
0.013573774 -0.14252478 0.97700006 8160427
0.016118869 -0.14252478 0.97700006 11234157
0.019512329 -0.14252478 0.97700006 11048851
0.022905756 -0.14252478 0.97700006 8552858
0.02545085 -0.14252478 0.97700006 8947359
0.027995944 -0.14252478 0.97700006 9412778
0.0050901575 -0.13997968 0.97700006 3830952
0.0076352526 -0.13997968 0.97700006 7236487
0.0113115 -0.14026247 0.97700012 10381158
0.013573774 -0.13997968 0.97700006 8292777
0.016118869 -0.14082803 0.97700006 10772057
0.019512329 -0.13997968 0.97700006 10381158
0.022905756 -0.13997968 0.97700006 10778224
0.02545085 -0.13997968 0.97700006 7568809
0.027995946 -0.13997968 0.97700006 9533319
0.0050901575 -0.13658623 0.97700006 7236999
0.0067868871 -0.13658623 0.97700006 7302280
0.019512329 -0.13743457 0.97700006 10703959
0.022905756 -0.13658623 0.97700006 10123383
0.02545085 -0.13658623 0.97700006 7305885
0.027995944 -0.13658623 0.97700006 8551305
0.020360693 -0.13404115 0.97700006 10962503
0.022905756 -0.13319279 0.97700006 10649208
0.02545085 -0.13319279 0.97700006 10004641
0.027995944 -0.13319279 0.97700006 8686997
0.031389374 -0.13319279 0.97700006 8226451
0.0016967299 -0.13064769 0.97700006 10381158
0.0033934598 -0.13064769 0.97700006 10381158
0.023754122 -0.13064769 0.97700006 8886674
0.02545085 -0.13064769 0.97700006 8228504
0.027995944 -0.13064769 0.97700006 9012893
0.031389374 -0.13064769 0.97700006 9275543
0.034782834 -0.13064769 0.97700006 9340820
0.0011311533 -0.12781984 0.97700012 10381158
0.0033934598 -0.128951 0.97700006 4289192
0.02545085 -0.12810263 0.97700006 5400219
0.027995944 -0.12810263 0.97700006 10582392
0.031106587 -0.12781984 0.97700012 10514278
0.034500048 -0.12838542 0.97700012 10381158
0.00084836496 -0.12470916 0.97700006 7564424
0.02545085 -0.12555751 0.97700006 5071005
0.027995944 -0.12555751 0.97700006 9798550
0.031389374 -0.12555751 0.97700006 11109255
0.034782834 -0.12555751 0.97700006 11237760
0.037327927 -0.12470916 0.97700006 9991546
0.039024625 -0.12386081 0.97700006 10381158
0.00084836496 -0.12131572 0.97700006 7170175
0.037327927 -0.12216406 0.97700006 10381158
0.039024625 -0.12131572 0.97700006 10187647
0.00084836496 -0.11792228 0.97700006 8415865
0.039024625 -0.11792228 0.97700006 7827077
-0.0016966974 -0.11537718 0.97700006 619945
0.040721353 -0.11537718 0.97700006 10381158
-0.0033934598 -0.11198373 0.97700006 10597542
-0.0016966974 -0.11283211 0.97700006 8033967
0.040721353 -0.11283211 0.97700006 9274515
-0.0067869197 -0.10859029 0.97700006 10381158
-0.0050901575 -0.11028704 0.97700006 10381158
0.040721353 -0.11028704 0.97700006 12502713
0.042418085 -0.10943867 0.97700006 10381158
-0.0084836176 -0.10604522 0.97700006 11045995
0.042983662 -0.10576242 0.97700012 11705700
0.045811545 -0.10519684 0.97700006 10381158
-0.0084836176 -0.10350015 0.97700006 11710527
0.043266449 -0.10350015 0.97700006 11374905
0.045811545 -0.10350015 0.97700006 12498476
0.043266449 -0.1018034 0.97700006 10381158
0.045811545 -0.1018034 0.97700006 10381158
0.015317394 -0.16508755 0.98000002 10381158
0.023259748 -0.16622216 0.98000002 9857646
0.025529001 -0.1659385 0.98000002 8217987
0.027230941 -0.1659385 0.98000002 10381158
0.013615455 -0.1633856 0.98000002 9140065
0.016168363 -0.1633856 0.98000002 9335389
0.019572243 -0.1633856 0.98000002 7700867
0.023827059 -0.1633856 0.98000002 5472164
0.025529001 -0.1633856 0.98000002 10381158
0.027230941 -0.1633856 0.98000002 4938151
0.013615455 -0.1608327 0.98000002 9273969
0.016168363 -0.1608327 0.98000002 9267810
0.019572243 -0.1608327 0.98000002 9662325
0.022692434 -0.16111636 0.98000002 10381158
0.025529001 -0.1608327 0.98000002 9140358
0.028081913 -0.1608327 0.98000002 10381158
0.0076586967 -0.15657787 0.98000002 10257010
0.011062577 -0.15742885 0.98000002 10122094
0.013615455 -0.15742885 0.98000002 8749705
0.016168363 -0.15742885 0.98000002 8879499
0.019572243 -0.15742885 0.98000002 9141901
0.022125121 -0.15742885 0.98000002 9601673
0.025529001 -0.15827982 0.98000002 7764132
0.028081913 -0.15742885 0.98000002 8746635
0.030634789 -0.15657787 0.98000002 10381158
0.0076586967 -0.15402497 0.98000002 7300982
0.011062577 -0.15402497 0.98000002 9004913
0.013615455 -0.15402497 0.98000002 9148052
0.016168363 -0.15402497 0.98000002 10057337
0.019572243 -0.15402497 0.98000002 8548736
0.022976089 -0.15402497 0.98000002 9726834
0.028365567 -0.15374133 0.98000002 10381158
0.030634789 -0.15402497 0.98000002 8875910
0.0042548333 -0.15147205 0.98000002 4483735
0.0076586967 -0.15147205 0.98000002 3562381
0.011062577 -0.15147205 0.98000002 6187892
0.013615455 -0.15147205 0.98000002 9148060
0.016168363 -0.15147205 0.98000002 10385267
0.022125121 -0.15147205 0.98000002 7372704
0.025529001 -0.15147205 0.98000002 6710952
0.028932881 -0.15147205 0.98000002 6965659
0.031485759 -0.15147205 0.98000002 8953250
0.00085096993 -0.14891917 0.98000002 9398898
0.0042548333 -0.14891917 0.98000002 7759231
0.0076586967 -0.14891917 0.98000002 7234429
0.011062576 -0.14891917 0.98000002 10381158
0.013615455 -0.14891917 0.98000002 9402247
0.016168363 -0.14891917 0.98000002 10912887
0.018721275 -0.14806819 0.98000002 10381158
0.022125121 -0.14806819 0.98000002 10381158
0.028932881 -0.14891917 0.98000002 7969183
0.031485759 -0.14891917 0.98000002 10780559
0.00085096993 -0.14551531 0.98000002 7957633
0.0039711823 -0.14579897 0.98000002 6712971
0.0073750406 -0.14579897 0.98000002 5597070
0.011346234 -0.14579897 0.98000002 6514572
0.013615455 -0.14551531 0.98000002 9204870
0.016168363 -0.14551531 0.98000002 10512487
0.018721275 -0.14551531 0.98000002 10381158
0.022125121 -0.14551531 0.98000002 9470083
0.031485759 -0.14551531 0.98000002 9732493
-0.0034038797 -0.14126046 0.98000002 10381158
-0.0017019074 -0.14211144 0.98000002 4419752
0.00085096993 -0.14211144 0.98000002 7695490
0.0034038797 -0.14211144 0.98000002 10381158
0.031485759 -0.14211144 0.98000002 7436694
0.03460598 -0.14182779 0.98000002 8875124
-0.0034038797 -0.13955855 0.98000002 7577518
-0.0017019074 -0.13955855 0.98000002 4223654
0.00085096993 -0.13955855 0.98000002 4812705
0.0034038797 -0.13955855 0.98000002 10381158
0.031485759 -0.13955855 0.98000002 7700128
0.034889638 -0.13955855 0.98000002 7897243
-0.0034038797 -0.13700563 0.98000002 8683402
-0.0017019074 -0.13700563 0.98000002 7171717
0.00085096993 -0.13700563 0.98000002 10381158
0.0034038797 -0.13700563 0.98000002 7433862
0.031485759 -0.13700563 0.98000002 8483714
0.034889638 -0.13700563 0.98000002 9990004
-0.0039711823 -0.13331813 0.98000002 10517371
-0.0017019074 -0.13360178 0.98000002 3697064
0.00085096993 -0.13360177 0.98000002 7170435
0.0034038797 -0.13445273 0.98000002 4354202
0.034889638 -0.13360177 0.98000002 9727605
0.03744255 -0.13360178 0.98000002 9271939
-0.0042548333 -0.13019791 0.98000002 9670548
-0.0017019074 -0.13019791 0.98000002 4091041
-0 -0.13019791 0.98000002 10381158
0.03744255 -0.13019791 0.98000002 9991290
0.039144453 -0.12934697 0.98000002 10381158
-0.0042548333 -0.127645 0.98000002 8296091
-0.0017019074 -0.127645 0.98000002 4618403
0.035740606 -0.127645 0.98000002 10381158
0.03744255 -0.127645 0.98000002 10381158
0.039144453 -0.127645 0.98000002 10256257
-0.0068077594 -0.12424114 0.98000002 8421005
-0.0042548333 -0.1250921 0.98000002 9467775
-0.0017019074 -0.12509209 0.98000002 4682662
0.040279083 -0.12537575 0.98000002 10844027
-0.0068077594 -0.12253918 0.98000002 10381158
-0.0042548333 -0.12168823 0.98000002 8224914
-0.0017019074 -0.12168823 0.98000002 3630245
0.040846396 -0.12168823 0.98000002 10123134
-0.0042548333 -0.11828437 0.98000002 8422289
-0.0017019074 -0.11828437 0.98000002 7104643
0.040846396 -0.11828437 0.98000002 7563909
-0.0068077594 -0.1148805 0.98000002 8875649
-0.0042548333 -0.1148805 0.98000002 7958916
0.042548336 -0.1148805 0.98000002 6776203
-0.0068077594 -0.1123276 0.98000002 10399647
-0.005105787 -0.1123276 0.98000002 10662306
0.043399304 -0.1123276 0.98000002 12241343
0.045952216 -0.1123276 0.98000002 10381158
-0.010211574 -0.10892373 0.98000002 10381158
-0.0079423646 -0.11005837 0.98000002 10846073
0.044250272 -0.10977471 0.98000002 10381158
0.045952216 -0.10977471 0.98000002 10381158
-0.010211574 -0.10637084 0.98000002 11046790
0.044250272 -0.10722182 0.98000002 12564864
0.047086816 -0.1066545 0.98000002 11968387
0.049356062 -0.10551986 0.98000002 10381158
0.051058002 -0.10551986 0.98000002 13419659
-0.010211574 -0.10296698 0.98000002 10979933
0.047654118 -0.10296698 0.98000002 11439955
0.049356062 -0.10296698 0.98000002 10381158
0.046803169 -0.10041405 0.98000002 14079052
0.006828567 -0.18095723 0.98300004 1320341
0.011096442 -0.18095723 0.98300004 801937
0.013657134 -0.18095723 0.98300004 474002
0.016502384 -0.18152627 0.98300004 5594244
0.018778585 -0.18095723 0.98300004 671616
0.0073976172 -0.17811194 0.98300004 8479343
0.011096442 -0.17839646 0.98300004 10381158
0.013657134 -0.17839646 0.98300004 4215171
0.016217859 -0.17839646 0.98300004 8675691
0.018778585 -0.17839646 0.98300004 10381158
0.0045523783 -0.17469767 0.98300004 6053753
0.0076821418 -0.17498219 0.98300004 6315378
0.011096442 -0.17498219 0.98300004 8150882
0.013657134 -0.17498219 0.98300004 7756117
0.016217859 -0.17498219 0.98300004 8543829
0.018778585 -0.17498219 0.98300004 9134679
0.0017071499 -0.17242149 0.98300004 4215932
0.0042678583 -0.17242149 0.98300004 5595512
0.0076821418 -0.17242149 0.98300004 6249314
0.011096442 -0.17242149 0.98300004 7954778
0.013657134 -0.17242149 0.98300004 8549452
0.016217859 -0.17242149 0.98300004 8352090
0.018778585 -0.17242149 0.98300004 7557977
0.0239 -0.17242149 0.98300004 10381158
0.0051214173 -0.16986077 0.98300004 7825236
0.0076821418 -0.16986075 0.98300004 8608600
0.011096442 -0.16986077 0.98300004 10381158
0.013657134 -0.16986077 0.98300004 8877911
0.016217859 -0.16986077 0.98300004 10055006
0.019632161 -0.16986077 0.98300004 9661282
0.023330953 -0.16957626 0.98300004 10055782
0.02560715 -0.16986077 0.98300004 8424047
0.028167875 -0.16900721 0.98300004 8876147
0.0051214173 -0.16730005 0.98300004 7563087
0.0076821418 -0.16644648 0.98300004 7759442
0.011096442 -0.16644648 0.98300004 9529431
0.013657134 -0.16644648 0.98300004 9535577
0.016502384 -0.166731 0.98300004 9799258
0.019632161 -0.16644648 0.98300004 9863534
0.022192851 -0.16559292 0.98300004 10381158
0.029021451 -0.16644648 0.98300004 7887759
0.030728569 -0.16644648 0.98300004 10381158
0.0017071499 -0.16217864 0.98300004 8878674
0.0042678583 -0.16217864 0.98300004 9925216
0.0076821418 -0.1630322 0.98300004 9464660
0.011096442 -0.1630322 0.98300004 9726294
0.022192851 -0.16388576 0.98300004 8158875
0.029021451 -0.16388576 0.98300004 7043507
0.030728569 -0.1630322 0.98300004 9273490
-0.0017071173 -0.16047147 0.98300004 10381158
0.00085357495 -0.16047147 0.98300004 10252899
0.0042678583 -0.16047147 0.98300004 9403224
0.0076821418 -0.16047147 0.98300004 9008993
0.011096442 -0.16047147 0.98300004 10053983
0.030728569 -0.16047147 0.98300004 9344172
-0.0034142998 -0.15791076 0.98300004 8812417
-0.0017071173 -0.15791076 0.98300004 8745592
0.00085357495 -0.15791076 0.98300004 10319724
0.0042678583 -0.15791076 0.98300004 10387304
0.0076821418 -0.15876435 0.98300004 9994861
0.031582143 -0.15791076 0.98300004 9138816
-0.0034142998 -0.15449649 0.98300004 10381158
-0.0017071173 -0.15449649 0.98300004 7890301
0.00085357495 -0.15449649 0.98300004 7235454
0.0042678583 -0.15449649 0.98300004 8614521
0.032435715 -0.15449649 0.98300004 8744326
-0.0039833388 -0.15079767 0.98300004 9204351
-0.0017071173 -0.15108219 0.98300004 7760259
0.00085357495 -0.15193574 0.98300004 5794707
0.034142867 -0.15108219 0.98300004 9602972
-0.0034142998 -0.14852147 0.98300004 7181472
-0.0017071173 -0.14852147 0.98300004 4613533
0.034142867 -0.14852147 0.98300004 10003139
-0.0034142998 -0.14596075 0.98300004 8947086
-0.0017071173 -0.14596075 0.98300004 10381158
0.034996442 -0.14596075 0.98300004 9726578
-0.0045523783 -0.142831 0.98300004 10381158
0.035850018 -0.14340004 0.98300004 10381158
-0.0068285996 -0.13913219 0.98300004 10381158
-0.0051214173 -0.13913219 0.98300004 10789539
-0.0068285996 -0.1365715 0.98300004 10262684
-0.0051214173 -0.1365715 0.98300004 10381158
-0.0073976386 -0.13372625 0.98300004 10518138
-0.0051214173 -0.13486433 0.98300004 10381158
0.039264284 -0.13315721 0.98300004 7901865
-0.0076821581 -0.13059647 0.98300004 10256005
0.040402383 -0.130881 0.98300004 9925757
-0.0073976386 -0.12746671 0.98300004 9930897
0.040971432 -0.12803575 0.98300004 10381158
-0.0085357167 -0.12462147 0.98300004 8420758
-0.0079666777 -0.12177622 0.98300004 9465971
-0.010242835 -0.1177929 0.98300004 10381158
-0.0076821577 -0.11864646 0.98300004 9077133
0.042678583 -0.1177929 0.98300004 10381158
-0.010242835 -0.11523218 0.98300004 9336195
-0.0085357167 -0.11523218 0.98300004 8355997
0.044385731 -0.11523218 0.98300004 5537465
0.046946444 -0.11437862 0.98300004 10381158
-0.010242835 -0.11267145 0.98300004 10381158
-0.0085357167 -0.11267145 0.98300004 10134430
0.047800001 -0.11267145 0.98300004 10381158
0.049507152 -0.11267145 0.98300004 10381158
-0.022192851 -0.11011075 0.98300004 5263960
-0.019632142 -0.10925717 0.98300004 10381158
-0.016217874 -0.10925717 0.98300004 8486531
-0.013657134 -0.11011075 0.98300004 9869961
-0.011380956 -0.11039528 0.98300004 10381158
0.047800001 -0.11011075 0.98300004 10381158
0.049507152 -0.11011075 0.98300004 10381158
-0.022192851 -0.10669647 0.98300004 8738903
-0.019632142 -0.10669647 0.98300004 10517353
-0.016217874 -0.10755005 0.98300004 10193532
-0.013657134 -0.10669647 0.98300004 10914938
-0.011950017 -0.10669647 0.98300004 10981255
0.049507152 -0.10755005 0.98300004 12960941
0.052067876 -0.10669647 0.98300004 12295036
-0.013657134 -0.10413577 0.98300004 11185008
-0.011950017 -0.10328218 0.98300004 10914404
0.0512143 -0.10413577 0.98300004 10381158
-0.02560715 -0.09986788 0.98300004 5263441
-0.023046441 -0.09986788 0.98300004 7361090
-0.011950017 -0.10072144 0.98300004 11970312
0.004276542 -0.18132541 0.98500007 2507658
0.008553084 -0.18132541 0.98500007 864659
0.020527413 -0.18132541 0.98500007 867195
0.023948627 -0.18132541 0.98500007 1524871
0.0017106233 -0.17875944 0.98500007 3822981
0.004276542 -0.17875944 0.98500007 8414319
0.008553084 -0.17961475 0.98500007 2775443
0.020527413 -0.17875944 0.98500007 9134171
0.023948627 -0.17875944 0.98500007 9266794
0.0017106233 -0.17533821 0.98500007 7167598
0.0034212465 -0.17619352 0.98500007 3758987
0.020527413 -0.17533821 0.98500007 10381158
0.023378421 -0.1750531 0.98500007 9659488
0.025659252 -0.17533821 0.98500007 9068642
0.027369874 -0.17448288 0.98500007 10381158
0.0017106233 -0.17106165 0.98500007 4084842
0.0034212465 -0.17106165 0.98500007 10381158
0.020527413 -0.1727723 0.98500007 8478291
0.022238003 -0.17191698 0.98500007 9922911
0.025659252 -0.1727723 0.98500007 10381158
0.028225185 -0.17191698 0.98500007 8675170
0.0017106233 -0.16935107 0.98500007 10381158
0.0034212465 -0.16935107 0.98500007 10381158
0.030791087 -0.16935107 0.98500007 4348563
-0.0034212465 -0.16592984 0.98500007 10381158
-0.0017105906 -0.16678512 0.98500007 6055050
0.00085531163 -0.16678514 0.98500007 9593702
0.0039914437 -0.16650003 0.98500007 8741209
0.032501709 -0.16678512 0.98500007 7959953
-0.0034212465 -0.16250859 0.98500007 10381158
-0.0017105906 -0.1633639 0.98500007 9401459
0.00057020778 -0.16364901 0.98500007 9528932
0.004276542 -0.1642192 0.98500007 9269079
0.032501709 -0.1633639 0.98500007 10381158
-0.004276542 -0.15994267 0.98500007 9798786
0.032501709 -0.15994267 0.98500007 9403268
0.034212336 -0.15908737 0.98500007 7833493
-0.0068424931 -0.15737674 0.98500007 8555430
-0.005131837 -0.15737674 0.98500007 9079201
0.034212336 -0.15737674 0.98500007 7570578
-0.0068424931 -0.15481082 0.98500007 10381158
-0.005131837 -0.15481082 0.98500007 10381158
0.035067648 -0.15481082 0.98500007 8350335
-0.0068424931 -0.15138957 0.98500007 10381158
-0.005131837 -0.15224487 0.98500007 8821934
0.035922956 -0.15138957 0.98500007 10381158
-0.0068424931 -0.14796834 0.98500007 10190978
-0.005131837 -0.14796834 0.98500007 10263970
0.035922956 -0.14882363 0.98500007 9742527
-0.0068424931 -0.14540242 0.98500007 10459554
-0.005131837 -0.14540242 0.98500007 10858412
0.037633579 -0.14540242 0.98500007 8357032
-0.0074126902 -0.14255139 0.98500007 10324620
0.037633579 -0.14198118 0.98500007 7831466
-0.010263674 -0.13855994 0.98500007 10201747
-0.008553084 -0.13941526 0.98500007 10381158
0.037633579 -0.13941526 0.98500007 9335938
0.039344173 -0.13855994 0.98500007 10381158
-0.010263674 -0.13599403 0.98500007 10267551
-0.008553084 -0.13599403 0.98500007 10381158
0.037633579 -0.13684936 0.98500007 10381158
0.039344173 -0.13513871 0.98500007 10381158
-0.011119002 -0.13342813 0.98500007 10587525
-0.013684921 -0.13000689 0.98500007 10381158
-0.010833893 -0.13057709 0.98500007 9866124
-0.010263674 -0.12744093 0.98500007 10332313
-0.008553084 -0.12658562 0.98500007 10381158
-0.023378443 -0.12373459 0.98500007 14606298
-0.017106168 -0.12316438 0.98500007 13361110
-0.010263674 -0.1240197 0.98500007 8422555
0.042765416 -0.12316438 0.98500007 10381158
-0.017106168 -0.12145379 0.98500007 12442064
-0.010263674 -0.12145379 0.98500007 8223633
0.043620728 -0.12145379 0.98500007 9139592
-0.013684921 -0.11888786 0.98500007 10381158
-0.010263674 -0.11974315 0.98500007 10381158
0.043905836 -0.11917295 0.98500007 8416120
-0.015395576 -0.11632192 0.98500007 10381158
-0.013684921 -0.11546662 0.98500007 8552846
-0.01197433 -0.11546662 0.98500007 9598335
0.046186663 -0.11632192 0.98500007 10381158
0.049607877 -0.11461134 0.98500007 11968178
-0.019672085 -0.1111901 0.98500007 10381158
-0.016250871 -0.1111901 0.98500007 8609895
-0.013684921 -0.1129007 0.98500007 8353925
-0.01197433 -0.1129007 0.98500007 8816785
0.051318504 -0.1120454 0.98500007 13224890
0.052173816 -0.10947946 0.98500007 14277060
-0.02394866 -0.10605823 0.98500007 6761526
-0.016250871 -0.10605823 0.98500007 11376511
0.053029124 -0.10776887 0.98500007 14409674
-0.023093332 -0.10349233 0.98500007 7950161
-0.019957196 -0.10377743 0.98500007 11188863
-0.016250871 -0.10434765 0.98500007 11448980
-0.013684921 -0.10263701 0.98500007 10986043
-0.013684921 -0.10007107 0.98500007 11774471
-0.01197433 -0.099215768 0.98500007 10381158
-0 -0.18016182 0.98800004 10381158
0.022305734 -0.18101972 0.98800004 2837112
0.025737401 -0.18101972 0.98800004 6183802
0.027453233 -0.18101972 0.98800004 6381951
-0 -0.17844597 0.98800004 10381158
0.022305734 -0.17844597 0.98800004 8084832
0.025737401 -0.17844597 0.98800004 8218227
0.027453233 -0.17844597 0.98800004 6712696
-0.0017158005 -0.17673016 0.98800004 3232886
-0 -0.17587224 0.98800004 10381158
0.022305734 -0.17673016 0.98800004 8151631
0.028597122 -0.17615822 0.98800009 8282986
0.031456813 -0.17558627 0.98800009 8020846
-0.0017158005 -0.17244059 0.98800004 7692406
-0 -0.17244059 0.98800004 10381158
0.031742785 -0.17244057 0.98800004 9200992
0.034316532 -0.17329851 0.98800004 10381158
-0.0040036002 -0.16872296 0.98800009 7564682
-0.0017158005 -0.16986686 0.98800004 5199236
-0 -0.16986686 0.98800004 10381158
0.032600701 -0.16986686 0.98800004 10381158
0.034316532 -0.16900894 0.98800004 3691931
-0.0068633333 -0.1664352 0.98800004 10381158
-0.0051474669 -0.1664352 0.98800004 8096677
0.034316532 -0.1664352 0.98800004 6326960
-0.0068633333 -0.16386145 0.98800004 10192003
-0.0045755338 -0.16414742 0.98800009 10254203
0.034316532 -0.16386145 0.98800004 9469316
-0.0068633333 -0.16042981 0.98800004 10381158
-0.0051474669 -0.16128771 0.98800004 9673888
0.034316532 -0.16128771 0.98800004 10381158
0.036890287 -0.15699816 0.98800004 6977439
0.037748203 -0.1544244 0.98800004 6320786
0.039464004 -0.1544244 0.98800004 6910616
-0.010294934 -0.15099277 0.98800004 10381158
-0.0085791331 -0.15099277 0.98800004 10381158
0.037748203 -0.15185066 0.98800004 8360847
0.040035948 -0.1515647 0.98800009 8813710
-0.0085791331 -0.14841901 0.98800004 10381158
0.037748203 -0.14841901 0.98800004 10381158
0.04032192 -0.14841901 0.98800004 9270659
-0.0085791331 -0.14498734 0.98800004 10190467
0.037748203 -0.14412944 0.98800004 10381158
0.040035948 -0.14527331 0.98800009 9406085
-0.010294934 -0.14241362 0.98800004 10067614
0.039464004 -0.14241362 0.98800004 8356263
-0.013154667 -0.1395539 0.98800009 11316675
-0.010294934 -0.14069781 0.98800004 10333080
0.04032192 -0.13983989 0.98800004 9335164
-0.012582733 -0.13669419 0.98800009 10381158
0.040607892 -0.13669419 0.98800009 7965100
-0.015442466 -0.13211866 0.98800004 10381158
-0.013154667 -0.13269061 0.98800009 10648703
0.041179836 -0.13383451 0.98800004 8820403
-0.015442466 -0.13040285 0.98800004 10381158
0.042895667 -0.13040285 0.98800004 9735063
-0.022305734 -0.12697116 0.98800004 14869209
-0.02001798 -0.12754311 0.98800009 13482418
-0.016014401 -0.12754311 0.98800009 11840428
-0.012868701 -0.12782907 0.98800004 10581877
0.043753583 -0.12782907 0.98800004 10317423
-0.022305734 -0.12525536 0.98800004 14737880
-0.019732002 -0.12439743 0.98800004 12625055
-0.016014401 -0.1246834 0.98800009 11374221
-0.012868701 -0.12439743 0.98800004 10191748
0.044039559 -0.1246834 0.98800009 10514289
0.046327334 -0.1235395 0.98800004 8682912
0.048043136 -0.1235395 0.98800004 10381158
-0.024021599 -0.12096578 0.98800004 12559521
-0.022305734 -0.12096578 0.98800004 12559265
-0.019732002 -0.12182371 0.98800004 12757662
-0.016014401 -0.12067981 0.98800009 10526363
-0.012582734 -0.12125175 0.98800009 9464965
0.046327334 -0.12096578 0.98800004 6388646
0.048043136 -0.12096578 0.98800004 10321027
-0.024021599 -0.11839205 0.98800004 13361062
-0.016300365 -0.11839205 0.98800004 9611932
-0.0120108 -0.11839205 0.98800004 10381158
0.046327334 -0.11839205 0.98800004 4618408
0.048043136 -0.11839205 0.98800004 8617653
-0.024021599 -0.1166762 0.98800004 10381158
-0.022305734 -0.1166762 0.98800004 12562301
-0.019732002 -0.11581831 0.98800004 9855840
-0.016586334 -0.11553234 0.98800009 9796458
0.048901051 -0.1166762 0.98800004 11307406
0.051474802 -0.11581831 0.98800004 13225401
-0.019732002 -0.11324455 0.98800004 7164769
-0.016300365 -0.11324455 0.98800004 8148324
-0.018874068 -0.1029496 0.98800004 10381158
-0.016300365 -0.1029496 0.98800004 10381158
-0.02001798 -0.10066181 0.98800009 10588230
-0.016300365 -0.10123375 0.98800004 11184397
-0.024021599 -0.097802103 0.98800004 6836799
-0.022305734 -0.096944198 0.98800004 8479276
-0.020589935 -0.096944198 0.98800004 10987289
-0.0017210104 -0.18070886 0.99100006 4936592
0.029257637 -0.18156938 0.99100006 3498390
0.03183917 -0.18156938 0.99100006 7166847
-0.0034420865 -0.17812729 0.99100006 10381158
-0.0017210104 -0.1789878 0.99100006 2315139
0.029257637 -0.1789878 0.99100006 5270916
0.032126009 -0.17841414 0.99100006 8546676
0.034420736 -0.17812729 0.99100006 7104391
-0.0034420865 -0.17554572 0.99100006 6059409
-0.0017210104 -0.17554572 0.99100006 10381158
0.034420736 -0.17554572 0.99100006 3758487
0.036141779 -0.17554572 0.99100006 10381158
-0.006884173 -0.17210366 0.99100006 9281429
-0.004302592 -0.17296419 0.99100006 9270911
0.034420736 -0.17210366 0.99100006 10381158
0.036141779 -0.17296419 0.99100006 7497085
-0.0074578431 -0.16923527 0.99100006 10381158
-0.0051630973 -0.17038263 0.99100006 7176853
0.037002303 -0.16952211 0.99100006 10381158
0.039583828 -0.16952211 0.99100006 10381158
-0.008605184 -0.16608004 0.99100006 9732479
0.037002303 -0.16608004 0.99100006 8225946
0.040444352 -0.16521952 0.99100006 10381158
-0.008605184 -0.16349849 0.99100006 10199967
0.036141779 -0.16349849 0.99100006 8354202
-0.008605184 -0.16091694 0.99100006 9664133
0.037002303 -0.16091694 0.99100006 8875651
0.039583828 -0.16005644 0.99100006 7039645
-0.008605184 -0.15747488 0.99100006 10381158
0.037862822 -0.15833539 0.99100006 10381158
0.040444352 -0.15747488 0.99100006 9334143
0.043886438 -0.15747488 0.99100006 11507601
-0.008605184 -0.15403278 0.99100006 10454916
0.041304875 -0.15403278 0.99100006 7960225
0.043886438 -0.15403278 0.99100006 10454668
0.046468005 -0.15403278 0.99100006 15527120
0.043886438 -0.15145124 0.99100006 10327984
0.046468005 -0.15145124 0.99100006 15131854
-0.018931378 -0.14800917 0.99100006 15526373
-0.017210368 -0.14800917 0.99100006 10381158
-0.010326195 -0.14886966 0.99100006 10135189
0.043886438 -0.14886968 0.99100006 10381158
0.046468005 -0.14973018 0.99100006 14802379
-0.018931378 -0.14628811 0.99100006 15460836
-0.017210368 -0.14628811 0.99100006 10381158
-0.012907775 -0.1445671 0.99100006 10381158
-0.010326195 -0.14542761 0.99100006 9868959
0.041304875 -0.1445671 0.99100006 9935769
0.043886438 -0.14542761 0.99100006 10388368
0.046468005 -0.1445671 0.99100006 13419979
-0.015489357 -0.14198554 0.99100006 10381158
-0.012620941 -0.14227237 0.99100006 10846341
0.041304875 -0.14198554 0.99100006 9339295
0.043599598 -0.14227238 0.99100006 10452350
-0.018931378 -0.13940397 0.99100006 15329512
-0.016349863 -0.13940397 0.99100006 10381158
0.043025918 -0.13940397 0.99100006 8554131
0.046468005 -0.13940397 0.99100006 11578031
-0.016063027 -0.13710928 0.99100006 10381158
-0.013768281 -0.13596189 0.99100006 11643304
0.043599602 -0.13653558 0.99100006 10057341
-0.018931378 -0.13251983 0.99100006 10381158
-0.016636699 -0.1336672 0.99100006 12695992
0.043886438 -0.13338035 0.99100006 10187896
0.046468005 -0.13251983 0.99100006 9338037
-0.018931378 -0.12993827 0.99100006 12756897
-0.017210368 -0.12993827 0.99100006 11968931
0.044746961 -0.13079882 0.99100006 10381158
0.046468005 -0.12993827 0.99100006 8289446
0.048762701 -0.12965143 0.99100006 10779523
0.046468005 -0.12735669 0.99100006 8551839
0.049049541 -0.12735669 0.99100006 12893373
-0.028397098 -0.12391462 0.99100006 14672602
-0.02581555 -0.12391462 0.99100006 14672603
0.046468005 -0.12563568 0.99100006 8617628
0.049336385 -0.125062 0.99100006 10381158
-0.031839184 -0.12133309 0.99100006 15066806
-0.028397098 -0.12133309 0.99100006 13878449
-0.02581555 -0.12133309 0.99100006 15000780
-0.019791916 -0.12047256 0.99100006 10381158
0.049910061 -0.12133309 0.99100006 13288373
-0.028397098 -0.11875155 0.99100006 12308365
-0.02581555 -0.11875155 0.99100006 12966051
-0.022373464 -0.11875155 0.99100006 13756081
-0.019791916 -0.11875155 0.99100006 14021045
0.049910061 -0.11875155 0.99100006 12696506
-0.018931378 -0.099820137 0.99100006 10381158
-0.016349863 -0.099820137 0.99100006 10781253
-0.0043156166 -0.18125589 0.99400002 8426394
0.034524936 -0.18125589 0.99400002 5334699
-0.016399357 -0.17952964 0.99400002 12039595
-0.012659147 -0.17895424 0.99400008 10588561
-0.010357453 -0.17952964 0.99400002 10460047
-0.0077681239 -0.17866652 0.99400002 10191741
-0.0051787267 -0.17866653 0.99400002 8162963
0.036251187 -0.17866653 0.99400002 7038086
-0.018988688 -0.17435093 0.99400002 12699321
-0.017262468 -0.17435093 0.99400002 12700081
-0.01208374 -0.17521404 0.99400002 10381158
-0.010357453 -0.17435093 0.99400002 10460820
-0.0077681234 -0.17521404 0.99400002 10056818
-0.0051787267 -0.17607714 0.99400002 7964821
0.037977442 -0.17521404 0.99400002 5070504
0.03970366 -0.17435093 0.99400002 10381158
-0.018988688 -0.17262466 0.99400002 13356491
-0.016399357 -0.17262466 0.99400002 11835543
-0.012946851 -0.17262466 0.99400002 11319219
-0.010357453 -0.17262466 0.99400002 10526874
-0.0086312341 -0.17262466 0.99400002 10381158
0.037977442 -0.17262466 0.99400002 10381158
0.03970366 -0.17262466 0.99400002 6120358
-0.018988688 -0.1700353 0.99400002 14475230
-0.016399357 -0.1700353 0.99400002 10381158
-0.012946851 -0.1700353 0.99400002 10977919
-0.010357453 -0.1700353 0.99400002 9473948
-0.0086312341 -0.17089844 0.99400002 10381158
0.041429915 -0.16917215 0.99400002 10381158
-0.012946851 -0.16658281 0.99400002 10977153
-0.010357453 -0.16658281 0.99400002 9869717
0.040566787 -0.16744594 0.99400002 8549002
-0.01208374 -0.16399346 0.99400002 10335417
-0.010357453 -0.16313033 0.99400002 10322817
0.037977442 -0.16399346 0.99400002 7964050
0.040566787 -0.16313033 0.99400002 9141395
0.043156169 -0.16226719 0.99400002 10381158
-0.010357453 -0.16054097 0.99400002 9804965
0.041429915 -0.16054097 0.99400002 8812180
0.044019297 -0.16054097 0.99400002 11841208
0.046608675 -0.16054097 0.99400002 15792087
-0.010357453 -0.15795158 0.99400002 10060417
0.046608675 -0.15795158 0.99400002 15724754
0.048334893 -0.15795158 0.99400002 15395816
-0.010357453 -0.15449907 0.99400002 10324353
-0.018988688 -0.15018345 0.99400002 10381158
-0.016111655 -0.15075889 0.99400008 11900050
-0.012946851 -0.15104659 0.99400002 11308959
-0.015536247 -0.14845721 0.99400002 10381158
-0.012946851 -0.14845721 0.99400002 11054019
0.046608675 -0.14845721 0.99400002 14538960
-0.020139545 -0.14558014 0.99400008 15329505
-0.016111655 -0.14558014 0.99400008 10381158
-0.012946851 -0.14673094 0.99400002 11111834
0.046608675 -0.14673094 0.99400002 13947861
-0.018988688 -0.14241534 0.99400002 15395557
-0.017262468 -0.14241534 0.99400002 10381158
0.04488242 -0.14155224 0.99400002 10381158
0.046608675 -0.14241534 0.99400002 10381158
0.04488242 -0.13896286 0.99400002 10190717
0.046608675 -0.13637348 0.99400002 10656948
0.046608675 -0.13464727 0.99400002 10381158
0.048910312 -0.13349643 0.99400008 11965323
0.050061148 -0.13119477 0.99400002 10381158
-0.018988688 -0.097532935 0.99400002 11503682
-0.016399357 -0.098396048 0.99400002 13354030
0.03751491 -0.18122582 0.9970001 6646693
0.040689223 -0.18007149 0.99700004 10651791
-0.016448852 -0.17834005 0.99700004 11177609
-0.013851641 -0.17834005 0.99700004 11251636
-0.010388714 -0.17834005 0.99700004 10394770
0.038092062 -0.17834005 0.99700004 5200808
0.040689223 -0.17834005 0.99700004 8554681
-0.01616028 -0.17603141 0.9970001 10912126
-0.013851641 -0.17574283 0.99700004 11383987
-0.010388714 -0.17660856 0.99700004 10395027
0.040689223 -0.17660856 0.99700004 10125454
-0.019623164 -0.16679701 0.9970001 13482935
-0.016737424 -0.16737418 0.9970001 15331040
0.043286417 -0.16708559 0.99700004 10381158
-0.013274498 -0.16333409 0.9970001 12102830
0.043286417 -0.1644884 0.99700004 10381158
0.045017883 -0.16275692 0.99700004 13489096
-0.012120211 -0.16015975 0.99700004 10454927
-0.012120211 -0.15756258 0.99700004 10131893
-0.012120211 -0.15496537 0.99700004 10381158
0.048480775 -0.15583111 0.99700004 15396583
-0.019911746 -0.1523682 0.99700004 12887715
-0.017314566 -0.1523682 0.99700004 15069420
0.048480775 -0.14544238 0.99700004 14343382
0.048480775 -0.14284518 0.99700004 14015435
0.046749346 -0.13851655 0.99700004 10789810
0.048480775 -0.13938226 0.99700004 11967640
-0.020200329 -0.13563079 0.9970001 15131869
0.049635082 -0.13620794 0.9970001 12956838
0.040811658 -0.18234999 1 11313837
0.045153342 -0.16932499 1 13753550
-0.015630027 -0.16671999 1 10381158
0.045153342 -0.16671999 1 13753548
-0.019971661 -0.16498336 1 12757411
-0.016498348 -0.16411501 1 14142917
0.045153342 -0.16498336 1 13621195
-0.017366668 -0.16151002 1 10381158
-0.013893321 -0.16064167 1 11573401
-0.013893321 -0.15716836 1 12567761
0.050363328 -0.15716836 1 15066598
-0.015630027 -0.15456332 1 14874085
-0.013893321 -0.15456332 1 12435164
0.050363328 -0.14240669 1 15592152
0.050363328 -0.13980168 1 15526614
-0.016257536 -0.16083328 1.003 13615545
-0.020031575 -0.1585108 1.003 12822433
-0.016547842 -0.15763986 1.003 14011848
-0.017418766 -0.155027 1.003 15200238
-0.020091491 -0.16335262 1.006 14141891
-0.020091491 -0.16073197 1.006 12822690
-0.020091491 -0.1572378 1.006 12887970
-0.020091491 -0.1554907 1.006 15461604
-0.019256134 -0.13916953 1.008 12822437
-0.017505601 -0.13829423 1.008 14018275
