# .PCD v0.7 - Point Cloud Data file format
VERSION 0.7
FIELDS x y z rgba
SIZE 4 4 4 4
TYPE F F F U
COUNT 1 1 1 1
WIDTH 906
HEIGHT 1
VIEWPOINT 0 0 0 1 0 0 0
POINTS 906
DATA ascii
0.14067 -0.10941003 1 15999539
0.14240669 -0.10941003 1 15999539
0.13719666 -0.10680501 1 16710744
0.13980168 -0.10680502 1 16711264
0.14240669 -0.10680501 1 16711269
0.14472222 -0.10709446 1 16711277
0.14240669 -0.10333166 1 16711306
0.14414331 -0.10333166 1 16711307
0.14631763 -0.1062545 1.003 16711305
0.14805952 -0.10712543 1.003 16711295
0.1632866 -0.12114815 1.011 15329245
0.16592026 -0.12114815 1.011 15395551
0.16913919 -0.12173339 1.011 15820398
0.17294334 -0.12114815 1.011 15461096
0.175577 -0.12114815 1.011 15592415
0.16153087 -0.11851448 1.011 15999539
0.1632866 -0.11851448 1.011 15564633
0.16592026 -0.11851448 1.011 15630432
0.16943184 -0.11851448 1.011 15380605
0.17323598 -0.1188071 1.011 15999539
0.16679814 -0.11588081 1.011 15458877
0.16855393 -0.11588081 1.011 15458872
0.15275201 -0.11236928 1.011 16444749
0.1580193 -0.11236928 1.011 16709981
0.16065297 -0.11236928 1.011 16710749
0.1632866 -0.11236928 1.011 16710991
0.16592026 -0.11236928 1.011 16710720
0.18172219 -0.11236928 1.011 16711250
0.1457289 -0.11061353 1.011 16252463
0.14836256 -0.11061353 1.011 15999539
0.16679814 -0.11061353 1.011 16711284
0.16855393 -0.11061353 1.011 15999539
0.18172219 -0.10885774 1.011 15999539
0.16905409 -0.13735646 1.0140001 11833758
0.1672931 -0.1303125 1.0140001 15999539
0.1602492 -0.12679054 1.0140001 15999539
0.16289064 -0.12767105 1.0140001 15999539
0.16670612 -0.12737755 1.0140002 13980265
0.16993457 -0.12767105 1.0140001 14694488
0.17257603 -0.12767105 1.0140001 8623316
0.17521751 -0.12679054 1.0140001 15999539
0.17785899 -0.12679054 1.0140001 9287142
0.1584882 -0.12326858 1.0140001 15999539
0.1602492 -0.12414908 1.0140001 14017758
0.16289064 -0.12414909 1.0140001 14267828
0.16641261 -0.12414908 1.0140001 14334136
0.17022806 -0.12444259 1.0140002 13870763
0.17257603 -0.12414908 1.0140001 14216423
0.17521751 -0.12414909 1.0140001 15160415
0.17844599 -0.12385559 1.0140002 15951213
0.1584882 -0.12150764 1.0140001 15999539
0.1602492 -0.12150764 1.0140001 15263707
0.16201018 -0.12150764 1.0140001 15263707
0.17873949 -0.12150764 1.0140001 15593185
0.15320529 -0.11798568 1.0140001 15065480
0.15790121 -0.11915965 1.0140002 15999539
0.1602492 -0.11886616 1.0140001 14998939
0.17257603 -0.11798568 1.0140001 15999539
0.176098 -0.11886616 1.0140001 15999539
0.17873949 -0.11886616 1.0140001 15999539
0.18138093 -0.11974663 1.0140001 15197360
0.14968331 -0.11622468 1.0140001 15999539
0.1514443 -0.11622468 1.0140001 15999539
0.15320529 -0.1153442 1.0140001 15999539
0.1584882 -0.1153442 1.0140001 15433548
0.1602492 -0.1153442 1.0140001 15391827
0.16289064 -0.1153442 1.0140001 15761466
0.16611911 -0.1150507 1.0140002 15771433
0.17022806 -0.1150507 1.0140002 15999539
0.17257603 -0.1153442 1.0140001 15721808
0.17521751 -0.1153442 1.0140001 15841103
0.17873949 -0.1153442 1.0140001 15958603
0.18402243 -0.1153442 1.0140001 16090936
0.14968331 -0.11270272 1.0140001 16246321
0.1514443 -0.11270272 1.0140001 16313149
0.15672721 -0.11270272 1.0140001 16708701
0.16993457 -0.11270272 1.0140001 16355126
0.18490291 -0.11270272 1.0140001 15999539
0.18138093 -0.11094176 1.0140001 15999539
0.18402241 -0.11006126 1.0140001 15999539
0.18754438 -0.10918076 1.0140001 16355395
0.19106632 -0.10918076 1.0140001 15999539
0.16778804 -0.1448276 1.0170001 3048664
0.16955425 -0.14571068 1.0170001 4095964
0.17220354 -0.14571068 1.0170001 13121885
0.1748528 -0.14571068 1.0170001 5015516
0.15895709 -0.14129522 1.0170001 15999539
0.1607233 -0.1421783 1.0170001 4621265
0.16307822 -0.14188394 1.0170001 15999539
0.16690496 -0.1421783 1.0170001 13318744
0.16955425 -0.1421783 1.0170001 12349564
0.17220354 -0.14217831 1.0170001 10965385
0.17573591 -0.1421783 1.0170001 13122142
0.15895709 -0.13952902 1.0170001 4358080
0.1607233 -0.13952902 1.0170001 5013194
0.16337258 -0.13952902 1.0170001 5866698
0.16690496 -0.13952902 1.0170001 10127273
0.16955425 -0.13952902 1.0170001 10264228
0.17220353 -0.13952902 1.0170001 7706575
0.17573591 -0.13952902 1.0170001 3703006
0.1607233 -0.13776284 1.0170001 4750029
0.16337258 -0.13687974 1.0170001 12866672
0.16690496 -0.13687974 1.0170001 15999539
0.16955425 -0.13599664 1.0170001 11833753
0.17220354 -0.13687974 1.0170001 11095431
0.17573591 -0.13687974 1.0170001 12925531
0.16366695 -0.133053 1.0170001 15220303
0.16719931 -0.133053 1.0170001 15286093
0.16955425 -0.13334736 1.0170001 11767692
0.17220353 -0.13334736 1.0170001 9463971
0.17573591 -0.13334736 1.0170001 12728155
0.1607233 -0.13069804 1.0170001 13004705
0.16337258 -0.13069804 1.0170001 13000593
0.16602185 -0.13069804 1.0170001 15999539
0.16955425 -0.13069804 1.0170001 11700647
0.17220353 -0.13069804 1.0170001 7702981
0.17573591 -0.13069804 1.0170001 1867228
0.15807399 -0.12804878 1.0170001 14368855
0.1607233 -0.12893188 1.0170001 11361971
0.16602185 -0.12893188 1.0170001 15999539
0.17573591 -0.12893188 1.0170001 15999539
0.1783852 -0.12893188 1.0170001 15999539
0.1801514 -0.12716566 1.0170001 8828647
0.1554247 -0.12451639 1.0170001 15763846
0.15777963 -0.12481076 1.0170001 14836076
0.18132883 -0.12481076 1.0170001 14722217
0.1842725 -0.12422203 1.0170001 15999539
0.15100925 -0.12010092 1.0170001 15564920
0.15454161 -0.12098402 1.0170001 15815520
0.1571909 -0.12186713 1.0170001 15330017
0.18191756 -0.12186713 1.0170001 15999539
0.18456686 -0.12098402 1.0170001 15762570
0.18721615 -0.12010092 1.0170001 15262648
0.14835997 -0.11833475 1.0170001 14800035
0.15100925 -0.11833475 1.0170001 15433315
0.1554247 -0.11833475 1.0170001 14999678
0.1571909 -0.11833475 1.0170001 15999539
0.18191756 -0.11833475 1.0170001 15523968
0.18456686 -0.11833475 1.0170001 15761499
0.18809925 -0.11833475 1.0170001 15524242
0.14659375 -0.11656854 1.0170001 15999539
0.14835997 -0.11568546 1.0170001 14801193
0.15100925 -0.11480238 1.0170001 15999539
0.1554247 -0.11568546 1.0170001 15999539
0.1571909 -0.11568546 1.0170001 15433546
0.18191756 -0.11568546 1.0170001 15892812
0.18809925 -0.11568545 1.0170001 15999539
0.19074851 -0.11480238 1.0170001 16182309
0.14659375 -0.11303616 1.0170001 15852829
0.14835997 -0.11303616 1.0170001 16048677
0.1554247 -0.11303616 1.0170001 16576349
0.18544996 -0.11127 1.0170001 16711257
0.18809925 -0.11215308 1.0170001 16354352
0.19074851 -0.11215308 1.0170001 16355393
0.19369218 -0.11185872 1.0170001 15999539
0.17271149 -0.15765458 1.0200001 5606623
0.17536861 -0.15765458 1.0200001 6199516
0.17271151 -0.1549975 1.0200001 15999539
0.17536861 -0.1549975 1.0200001 6524640
0.17714001 -0.1549975 1.0200001 10704780
0.17005441 -0.15056899 1.0200001 15999539
0.17271149 -0.1514547 1.0200001 13319261
0.17536861 -0.1514547 1.0200001 5146335
0.17802572 -0.1514547 1.0200001 10441863
0.18068282 -0.1514547 1.0200001 15999539
0.1576546 -0.14791191 1.0200001 9153487
0.1603117 -0.14791191 1.0200001 11890307
0.16385451 -0.14791191 1.0200001 11228807
0.16651161 -0.14791191 1.0200001 5345243
0.16887347 -0.14820716 1.0200002 8808355
0.17271149 -0.14879762 1.0200001 4818651
0.17536861 -0.14879762 1.0200001 4752861
0.17802572 -0.14791191 1.0200001 10375815
0.18068282 -0.1470262 1.0200001 15999539
0.1576546 -0.14525482 1.0200001 7184083
0.1603117 -0.14525482 1.0200001 3830235
0.16385451 -0.14525482 1.0200001 9982597
0.16651161 -0.14525482 1.0200001 4163026
0.17802572 -0.14525482 1.0200001 10507400
0.1815685 -0.14525482 1.0200001 5210841
0.15588319 -0.14348339 1.0200001 15999539
0.1576546 -0.14259771 1.0200001 4030923
0.159426 -0.14348339 1.0200001 15999539
0.16474019 -0.14348339 1.0200001 15999539
0.17891142 -0.14259771 1.0200001 4294364
0.1815685 -0.14259771 1.0200001 15999539
0.1576546 -0.13905492 1.0200001 4092603
0.159426 -0.13816923 1.0200001 15999539
0.17891142 -0.13905492 1.0200001 10114183
0.18127328 -0.1387597 1.0200002 12272490
0.1576546 -0.13639781 1.0200001 4358603
0.1603117 -0.13639781 1.0200001 6327763
0.17891142 -0.13639781 1.0200001 4424919
0.1815685 -0.13639781 1.0200001 4950234
0.15529273 -0.13344547 1.0200002 13256552
0.1576546 -0.132855 1.0200001 6720968
0.1603117 -0.13374071 1.0200001 14302290
0.16296881 -0.13462642 1.0200001 15999539
0.16651161 -0.13462642 1.0200001 13857654
0.17891142 -0.13374071 1.0200001 9852039
0.18068282 -0.13462642 1.0200001 15999539
0.15588319 -0.13019788 1.0200001 11753853
0.1576546 -0.13108358 1.0200001 9143996
0.159426 -0.13108358 1.0200001 11042994
0.17891142 -0.13108358 1.0200001 3308770
0.18127328 -0.12990266 1.0200002 15999539
0.15588319 -0.12754078 1.0200001 6589890
0.18245418 -0.12754078 1.0200001 8367844
0.1851113 -0.12754078 1.0200001 7118558
0.15234041 -0.1248837 1.0200001 15698570
0.15411182 -0.1248837 1.0200001 15999539
0.18599701 -0.12576941 1.0200001 15999539
0.18776841 -0.1248837 1.0200001 13493213
0.18953982 -0.12399799 1.0200001 16185061
0.14791191 -0.12045519 1.0200001 15565950
0.15145472 -0.12222661 1.0200001 15632525
0.18776841 -0.12222661 1.0200001 15999539
0.19013028 -0.12104567 1.0200002 15999539
0.14525482 -0.11868382 1.0200001 14800064
0.1470262 -0.11868382 1.0200001 15999539
0.1913112 -0.11868382 1.0200001 15656365
0.14525482 -0.1160267 1.0200001 15999539
0.1470262 -0.11514102 1.0200001 15999539
0.1913112 -0.11691239 1.0200001 15999539
0.1930826 -0.11514102 1.0200001 16115232
0.14259771 -0.1133696 1.0200001 15524386
0.14525482 -0.1133696 1.0200001 15722517
0.18776841 -0.11159822 1.0200001 15999539
0.18953982 -0.1133696 1.0200001 15999539
0.1930826 -0.1133696 1.0200001 15999539
0.19662541 -0.1133696 1.0200001 15999539
0.16611303 -0.18121421 1.023 5016037
0.16966626 -0.18121421 1.023 5015265
0.16611303 -0.1785493 1.023 15999539
0.17055458 -0.17766099 1.023 15999539
0.16344814 -0.17588441 1.023 4817378
0.16640913 -0.17529219 1.023 8675494
0.17055458 -0.17588441 1.023 5081055
0.17233118 -0.17410776 1.023 5015266
0.17410776 -0.17499608 1.023 10638982
0.16611303 -0.17233118 1.023 4752600
0.17233118 -0.17233118 1.023 15999539
0.17410776 -0.17233118 1.023 5080036
0.16167152 -0.16877797 1.023 5344474
0.16344814 -0.16966626 1.023 10639498
0.16611303 -0.16966628 1.023 13188189
0.16966626 -0.16966628 1.023 15999539
0.17233118 -0.16966626 1.023 4884195
0.17499608 -0.16966628 1.023 10638472
0.177661 -0.16877797 1.023 5147614
0.15811829 -0.16522476 1.023 15999539
0.1607832 -0.16522476 1.023 15999539
0.16344814 -0.16611305 1.023 5410532
0.16611303 -0.16611305 1.023 7893685
0.16966626 -0.16611305 1.023 10573195
0.17233118 -0.16611305 1.023 5802472
0.17499608 -0.16611305 1.023 8155578
0.177661 -0.16611305 1.023 15999539
0.15722999 -0.16344813 1.023 10449106
0.1607832 -0.16344813 1.023 10838920
0.16344814 -0.16344813 1.023 5606377
0.16611303 -0.16344813 1.023 5213149
0.16966626 -0.16344813 1.023 5016030
0.17233118 -0.16344813 1.023 6916836
0.17499608 -0.16344813 1.023 11099789
0.17854932 -0.16344813 1.023 5212126
0.15722999 -0.16078322 1.023 12274561
0.1607832 -0.16078322 1.023 15999539
0.16344814 -0.16078322 1.023 7182568
0.16611303 -0.16078322 1.023 10376581
0.16966626 -0.16078322 1.023 15999539
0.17233118 -0.16078322 1.023 5605854
0.17499608 -0.16078322 1.023 13319261
0.17854932 -0.16078322 1.023 13384796
0.18121424 -0.16078322 1.023 5997018
0.15456508 -0.15722999 1.023 15265515
0.15722999 -0.15722997 1.023 10651830
0.1607832 -0.15722999 1.023 12937336
0.16344814 -0.15722999 1.023 7842011
0.16611303 -0.15722999 1.023 7893687
0.16966626 -0.15722999 1.023 8156596
0.17884544 -0.15752609 1.023 8677794
0.18210253 -0.15722997 1.023 13449818
0.18476744 -0.15634169 1.023 7118306
0.15456508 -0.15456505 1.023 16121055
0.15722999 -0.15456505 1.023 10076129
0.1607832 -0.15456505 1.023 9934021
0.16344814 -0.15456505 1.023 8104661
0.16611303 -0.15456505 1.023 5739742
0.16966626 -0.15456505 1.023 10968201
0.17943762 -0.15456505 1.023 4754657
0.18210253 -0.15456505 1.023 10704008
0.18476744 -0.15456505 1.023 6986459
0.15456508 -0.15190016 1.023 14138309
0.15722999 -0.15190016 1.023 12274301
0.1607832 -0.15190016 1.023 15999539
0.16344814 -0.15190016 1.023 7905499
0.16611303 -0.15190016 1.023 10968199
0.16937016 -0.15219627 1.023 15999539
0.18299082 -0.15190016 1.023 15999539
0.18476744 -0.15190016 1.023 11426182
0.18654406 -0.15190016 1.023 11296134
0.15278848 -0.14745863 1.023 15999539
0.15456508 -0.14834693 1.023 9157328
0.15634167 -0.14834693 1.023 12467579
0.18239865 -0.14864305 1.023 8872863
0.18476744 -0.14834693 1.023 5014491
0.18654406 -0.14745863 1.023 15999539
0.15456508 -0.14568204 1.023 12107218
0.15634167 -0.14568204 1.023 9619144
0.18476744 -0.14568204 1.023 15999539
0.18654406 -0.14568204 1.023 4160974
0.15190017 -0.14301711 1.023 15026775
0.15456508 -0.14301711 1.023 12826302
0.15634167 -0.14212883 1.023 15999539
0.18476744 -0.14301711 1.023 5144795
0.18654406 -0.14301711 1.023 15999539
0.14568204 -0.1385756 1.023 15999539
0.14864305 -0.13916782 1.023 13724539
0.15190017 -0.1394639 1.023 14439518
0.15456508 -0.1394639 1.023 14641252
0.15634167 -0.1394639 1.023 15999539
0.18299082 -0.14035219 1.023 5342418
0.18476744 -0.1394639 1.023 10441088
0.18654406 -0.1394639 1.023 15999539
0.14568204 -0.13591069 1.023 13080487
0.14834693 -0.13591069 1.023 13067376
0.15190017 -0.13591069 1.023 13788005
0.15456508 -0.13591069 1.023 13851762
0.15722999 -0.13591069 1.023 6133188
0.18299082 -0.13502239 1.023 15999539
0.18476744 -0.13591069 1.023 4556762
0.18743235 -0.13591069 1.023 11096191
0.14390542 -0.13324575 1.023 10856114
0.14568204 -0.13324575 1.023 10330031
0.14834693 -0.13324575 1.023 9409220
0.15190017 -0.13324575 1.023 8161743
0.18210253 -0.13324575 1.023 4229087
0.18476744 -0.13324575 1.023 4686813
0.18743236 -0.13324575 1.023 6068182
0.14390542 -0.13146912 1.023 15999539
0.14568204 -0.13058083 1.023 6525891
0.14834693 -0.13058083 1.023 10835074
0.15190017 -0.13058083 1.023 13515864
0.15456508 -0.13058083 1.023 15999539
0.18299082 -0.13146912 1.023 15999539
0.18476744 -0.13058083 1.023 5403101
0.18743235 -0.13058083 1.023 15999539
0.14568204 -0.12613931 1.023 8820983
0.14834693 -0.1270276 1.023 7694005
0.15160407 -0.12732372 1.023 7557020
0.15456508 -0.1279159 1.023 3636168
0.18832067 -0.1279159 1.023 5735638
0.19098558 -0.1270276 1.023 10571396
0.14923523 -0.12436268 1.023 15265004
0.15101185 -0.12436268 1.023 15999539
0.19187386 -0.12436268 1.023 15999539
0.19365048 -0.12436268 1.023 15854303
0.14390542 -0.12080947 1.023 15999539
0.14568204 -0.12169778 1.023 15068125
0.14834693 -0.1225861 1.023 15566994
0.19187386 -0.1225861 1.023 15999539
0.19365048 -0.12169778 1.023 15987165
0.19601932 -0.12140168 1.023 15999539
0.19986863 -0.12080947 1.023 7999818
0.14301711 -0.11814457 1.023 15367553
0.19365048 -0.11814457 1.023 15762512
0.19631541 -0.11814457 1.023 15303550
0.19986863 -0.11814457 1.023 14172759
0.14301711 -0.11547967 1.023 15432752
0.1954271 -0.11547967 1.023 15999539
0.13146913 -0.11192645 1.023 15786051
0.13324575 -0.11192645 1.023 15999539
0.16036381 -0.19243659 1.026 4424925
0.16392745 -0.19332749 1.026 6456785
0.16660017 -0.19332749 1.026 11948926
0.16927291 -0.19332749 1.026 5407951
0.17194563 -0.19332749 1.026 8216998
0.17521231 -0.19303052 1.026 7621015
0.16036381 -0.19065475 1.026 15999539
0.16303656 -0.19065475 1.026 4489956
0.16660017 -0.19065475 1.026 4094944
0.16927291 -0.19065475 1.026 4094943
0.17194563 -0.19065475 1.026 3702238
0.17550927 -0.19065475 1.026 9522821
0.15858197 -0.1870911 1.026 15999539
0.16036381 -0.18798202 1.026 4487901
0.16303656 -0.18798202 1.026 10244233
0.16660017 -0.18798202 1.026 15999539
0.16927291 -0.18798202 1.026 4947677
0.17194563 -0.18798202 1.026 10440838
0.17550927 -0.18798202 1.026 13187419
0.17818201 -0.18887295 1.026 3373522
0.15858197 -0.18441837 1.026 10112385
0.16036381 -0.18441837 1.026 4817116
0.16303654 -0.18441838 1.026 7957939
0.16660017 -0.18441838 1.026 10441867
0.16927291 -0.18441837 1.026 4818147
0.17194563 -0.18441837 1.026 7498674
0.17550927 -0.18441837 1.026 13121884
0.17818201 -0.18441837 1.026 3373529
0.15501836 -0.18174563 1.026 15999539
0.15769106 -0.18174563 1.026 10508928
0.16036381 -0.18174563 1.026 4490207
0.16303656 -0.18174563 1.026 5015520
0.17283656 -0.18174563 1.026 5080542
0.17550927 -0.18174563 1.026 4883677
0.17907292 -0.18174563 1.026 9785735
0.15501836 -0.17907292 1.026 12542598
0.15769106 -0.17907292 1.026 15999539
0.16036381 -0.17907292 1.026 4293598
0.16303656 -0.17907292 1.026 10572938
0.16927291 -0.17907292 1.026 5212383
0.17224261 -0.1793699 1.026 8939173
0.17550927 -0.17907292 1.026 10573192
0.17907292 -0.17907292 1.026 15999539
0.18174566 -0.17818199 1.026 7767506
0.15501836 -0.17550927 1.026 10006740
0.15769106 -0.17550927 1.026 10442380
0.16036381 -0.17550927 1.026 3767509
0.16273959 -0.17521231 1.026 8282531
0.16570926 -0.17461835 1.026 15999539
0.16927291 -0.17550927 1.026 4686559
0.17194563 -0.17550927 1.026 10638983
0.17640018 -0.17550927 1.026 5343706
0.17907292 -0.17550927 1.026 10048390
0.18174566 -0.17550927 1.026 12080770
0.15501836 -0.17194563 1.026 8687814
0.15769106 -0.17194563 1.026 10638721
0.16036381 -0.17194563 1.026 4688345
0.16273959 -0.17224261 1.026 8415139
0.16927291 -0.17283656 1.026 4359138
0.17105472 -0.17283656 1.026 15999539
0.17640018 -0.17283656 1.026 5276380
0.17907292 -0.17194563 1.026 10310275
0.18174566 -0.17194563 1.026 15999539
0.15501836 -0.16927293 1.026 10133456
0.15769106 -0.16927293 1.026 6661078
0.16036381 -0.16927293 1.026 5409235
0.17996383 -0.16927293 1.026 4951000
0.18174566 -0.16927293 1.026 7636435
0.1514547 -0.16570929 1.026 7764684
0.15412745 -0.16660017 1.026 13464190
0.1573941 -0.16689715 1.026 15999539
0.16036381 -0.16749108 1.026 15999539
0.16214564 -0.16749108 1.026 15999539
0.17996383 -0.16660018 1.026 15999539
0.18174566 -0.16660018 1.026 11228293
0.18352745 -0.16660018 1.026 11884422
0.14967288 -0.16214566 1.026 15999539
0.1514547 -0.16303656 1.026 8037574
0.15412745 -0.16303656 1.026 10251170
0.18174566 -0.16392744 1.026 15999539
0.1841214 -0.16273959 1.026 12730985
0.1514547 -0.16036381 1.026 7310542
0.15412745 -0.16036381 1.026 11305428
0.18441837 -0.16036381 1.026 6393303
0.1870911 -0.16036381 1.026 15999539
0.14967288 -0.15680017 1.026 15999539
0.1514547 -0.15769106 1.026 15999539
0.15323654 -0.15769106 1.026 15999539
0.18530928 -0.15858196 1.026 15999539
0.18798202 -0.15769106 1.026 13648990
0.19065477 -0.15769106 1.026 12018566
0.19243655 -0.15680017 1.026 15999539
0.14967288 -0.15501831 1.026 9550031
0.1514547 -0.15412742 1.026 11684481
0.15323654 -0.15412742 1.026 13855106
0.188279 -0.1544244 1.026 10646437
0.19065477 -0.15412742 1.026 7839448
0.14967288 -0.15145469 1.026 7960502
0.1514547 -0.15145469 1.026 6908339
0.15323654 -0.15145469 1.026 15999539
0.18887293 -0.15145469 1.026 7118042
0.19065477 -0.15145469 1.026 7643608
0.14878196 -0.14878197 1.026 15999539
0.1514547 -0.14878197 1.026 15999539
0.15323654 -0.1496729 1.026 7378128
0.188279 -0.14907895 1.026 15999539
0.19065477 -0.14878197 1.026 8625875
0.14907894 -0.14492136 1.026 14506603
0.1514547 -0.14610925 1.026 11517659
0.15323654 -0.14610925 1.026 11776475
0.18887293 -0.14521834 1.026 12083833
0.19065477 -0.14521834 1.026 12171455
0.14610925 -0.14254561 1.026 10326455
0.14878196 -0.14254561 1.026 10718649
0.18887293 -0.14254561 1.026 8694462
0.19065477 -0.14254561 1.026 15999539
0.14521834 -0.13987288 1.026 13854827
0.14789104 -0.14076377 1.026 15999539
0.18887293 -0.13987288 1.026 15999539
0.19065477 -0.13987288 1.026 14576762
0.19303048 -0.13957593 1.026 14768738
0.1425456 -0.13630924 1.026 14640223
0.14432743 -0.13630924 1.026 14706021
0.19065477 -0.13630924 1.026 13283776
0.19332746 -0.13630925 1.026 15157075
0.1425456 -0.1336365 1.026 9673141
0.19065477 -0.1336365 1.026 9608139
0.19332746 -0.1336365 1.026 11382462
0.1425456 -0.13096377 1.026 15999539
0.14432743 -0.13007286 1.026 15999539
0.19065477 -0.13096377 1.026 5538760
0.19332746 -0.13096376 1.026 15999539
0.14076377 -0.12650923 1.026 15999539
0.1425456 -0.12740013 1.026 15999539
0.14492138 -0.1276971 1.026 7823266
0.19421838 -0.12740013 1.026 8887759
0.1960002 -0.12829103 1.026 5999292
0.20134565 -0.12650923 1.026 2430270
0.1425456 -0.12472738 1.026 15999539
0.14521834 -0.12472738 1.026 13884904
0.14789104 -0.12472738 1.026 15067117
0.19689113 -0.12472738 1.026 9942720
0.19956385 -0.12472738 1.026 5000580
0.20134565 -0.12472738 1.026 2034509
0.14076377 -0.12205467 1.026 15999539
0.1425456 -0.12205467 1.026 15999539
0.14432743 -0.12294559 1.026 15999539
0.19778204 -0.12294559 1.026 15999539
0.19956385 -0.12294559 1.026 5793196
0.20134565 -0.12294559 1.026 1048923
0.13987286 -0.11849104 1.026 14789275
0.13720016 -0.11403647 1.026 15999539
0.13987286 -0.1149274 1.026 15301960
0.19778204 -0.11581832 1.026 15999539
0.19956385 -0.11581832 1.026 13688689
0.15741146 -0.19318682 1.0300001 2981600
0.15920024 -0.19318682 1.0300001 3702238
0.16277778 -0.19318682 1.0300001 15999539
0.17887667 -0.19318682 1.0300001 84939
0.15741146 -0.19050366 1.0300001 15999539
0.15920024 -0.19050366 1.0300001 15999539
0.17887667 -0.19139804 1.0300001 1729490
0.18066545 -0.19050366 1.0300001 15999539
0.15562272 -0.18692611 1.0300001 10963324
0.15741146 -0.18692611 1.0300001 10570617
0.17887667 -0.18782051 1.0300001 15999539
0.1812617 -0.18662798 1.0300001 11286888
0.15562272 -0.18424298 1.0300001 15999539
0.15741146 -0.18424298 1.0300001 5408454
0.18155983 -0.18424298 1.0300001 4880592
0.18424296 -0.18424298 1.0300001 12960983
0.15383394 -0.18245418 1.0300001 15999539
0.18245421 -0.18155982 1.0300001 15999539
0.18424296 -0.18155982 1.0300001 14249603
0.15383394 -0.17798229 1.0300001 12876157
0.18424296 -0.17798229 1.0300001 12305113
0.15204518 -0.17529912 1.0300001 10065603
0.15383394 -0.17529912 1.0300001 15999539
0.18424296 -0.17529912 1.0300001 11977178
0.15204518 -0.17261599 1.0300001 15999539
0.15383394 -0.17261599 1.0300001 12276343
0.18424296 -0.17261599 1.0300001 11515864
0.15144894 -0.16874033 1.0300001 12862054
0.15383394 -0.16993286 1.0300001 8360137
0.18424296 -0.16993286 1.0300001 10330839
0.14846763 -0.16635533 1.0300001 8360638
0.1502564 -0.16635533 1.0300001 8033737
0.14667888 -0.1627778 1.0300001 15999539
0.14846763 -0.16367216 1.0300001 15999539
0.1502564 -0.16456653 1.0300001 15999539
0.18692613 -0.16367216 1.0300001 15999539
0.18960927 -0.1627778 1.0300001 12040677
0.14846763 -0.16009462 1.0300001 15999539
0.1502564 -0.16009462 1.0300001 13069697
0.19050366 -0.160989 1.0300001 15999539
0.19318679 -0.15920022 1.0300001 15999539
0.14846763 -0.15741147 1.0300001 15999539
0.19497557 -0.15741147 1.0300001 14341605
0.12879121 -0.15383394 1.0300001 15999539
0.14667888 -0.15383394 1.0300001 10192817
0.14846763 -0.15472832 1.0300001 13855608
0.1502564 -0.15383394 1.0300001 15999539
0.19408119 -0.15472831 1.0300001 14117252
0.12879121 -0.15204516 1.0300001 15999539
0.13057996 -0.15204516 1.0300001 16252653
0.13236873 -0.15204516 1.0300001 15999539
0.14667888 -0.15115079 1.0300001 8819650
0.14846763 -0.15204516 1.0300001 9078454
0.19408119 -0.15115079 1.0300001 14499420
0.14667888 -0.14846763 1.0300001 9808355
0.19408119 -0.14846763 1.0300001 11582433
0.14667888 -0.1457845 1.0300001 13595013
0.14846763 -0.14667888 1.0300001 11585241
0.19408119 -0.1457845 1.0300001 14958676
0.14489011 -0.14220697 1.0300001 13265012
0.19437931 -0.14250509 1.0300001 14635363
0.14310133 -0.13952382 1.0300001 13479062
0.19676434 -0.13684067 1.0300001 15999539
0.19855312 -0.13594629 1.0300001 3228517
0.14131257 -0.13326311 1.0300001 12212087
0.19676434 -0.13326311 1.0300001 8956594
0.19855312 -0.13326311 1.0300001 5790570
0.14131257 -0.13057998 1.0300001 15999539
0.19676434 -0.13057998 1.0300001 7773885
0.1994475 -0.13057998 1.0300001 5255770
0.13952379 -0.12700245 1.0300001 15999539
0.14131257 -0.12879118 1.0300001 5539017
0.19676434 -0.12700245 1.0300001 15999539
0.1994475 -0.12789682 1.0300001 5193325
0.13952379 -0.12342492 1.0300001 15999539
0.14131257 -0.12521365 1.0300001 11451347
0.13952379 -0.12163612 1.0300001 15999539
0.13773505 -0.11895299 1.0300001 15499651
0.13773505 -0.11626986 1.0300001 14801265
0.154282 -0.1937495 1.033 2120661
0.15607598 -0.1937495 1.033 2259930
0.18208864 -0.1937495 1.033 3433922
0.154282 -0.19105852 1.033 15999539
0.15607598 -0.19105852 1.033 15999539
0.18298563 -0.19105852 1.033 15999539
0.1847796 -0.19105852 1.033 15040132
0.15248801 -0.18657355 1.033 15999539
0.154282 -0.18747056 1.033 6060743
0.18298563 -0.18836756 1.033 7769042
0.1847796 -0.18747056 1.033 13357015
0.15248801 -0.18477961 1.033 5668546
0.154282 -0.18477961 1.033 6193597
0.18657357 -0.18477961 1.033 12371170
0.14890005 -0.1829856 1.033 15999539
0.15159103 -0.18208863 1.033 13908568
0.154282 -0.18119165 1.033 15999539
0.18657357 -0.18208863 1.033 15999539
0.15159103 -0.17850068 1.033 13975640
0.18657357 -0.17850068 1.033 13925512
0.14890005 -0.17491272 1.033 12871549
0.15069404 -0.17491272 1.033 12935036
0.18717156 -0.17521171 1.033 13800609
0.14890005 -0.17222175 1.033 8555715
0.15069404 -0.17222175 1.033 15999539
0.18657357 -0.17222175 1.033 12310495
0.14890005 -0.16953081 1.033 8752328
0.15069404 -0.1704278 1.033 7636434
0.18717156 -0.16923182 1.033 15999539
0.1471061 -0.16594285 1.033 12144499
0.18776956 -0.16624185 1.033 14196647
0.19016154 -0.16504586 1.033 16251886
0.14351813 -0.16325191 1.033 10401997
0.14531213 -0.16325191 1.033 10147778
0.19195554 -0.16325191 1.033 13097184
0.13096029 -0.1596639 1.033 15999539
0.13365126 -0.1596639 1.033 15041421
0.14531213 -0.16145791 1.033 15999539
0.1471061 -0.16056091 1.033 14647148
0.19374947 -0.16145791 1.033 13090014
0.13096029 -0.15697294 1.033 16645873
0.13365126 -0.15697294 1.033 14959451
0.13634223 -0.15607595 1.033 15999539
0.14531213 -0.15697294 1.033 15999539
0.1471061 -0.15697294 1.033 10646950
0.13096029 -0.154282 1.033 16514799
0.13365126 -0.154282 1.033 13919876
0.14531213 -0.154282 1.033 15999539
0.13006331 -0.15069406 1.033 15961230
0.13395026 -0.15129204 1.033 15999539
0.14351813 -0.15069406 1.033 10130880
0.14531213 -0.15159103 1.033 12737910
0.14351813 -0.14800307 1.033 13198458
0.14531213 -0.14800307 1.033 13264258
0.14531213 -0.14531212 1.033 15999539
0.14351813 -0.14262116 1.033 12870772
0.19733745 -0.14351815 1.033 15999539
0.14172415 -0.1390332 1.033 15999539
0.19733745 -0.1399302 1.033 15999539
0.19913141 -0.13813621 1.033 1649510
0.14172415 -0.13634226 1.033 15999539
0.13993017 -0.1300633 1.033 10771842
0.13813622 -0.12737235 1.033 7560898
0.12737235 -0.12468138 1.033 8458538
0.12916633 -0.12378441 1.033 15999539
0.13634223 -0.12378441 1.033 15999539
0.13873421 -0.12498038 1.033 15999539
0.12737235 -0.1219904 1.033 15999539
0.12976432 -0.12139242 1.033 15999539
0.13365126 -0.12019645 1.033 15999539
0.13634223 -0.12109342 1.033 15631743
0.13813622 -0.1219904 1.033 15591888
0.13365126 -0.11840246 1.033 15000251
0.13096029 -0.1166085 1.033 15999539
0.13365126 -0.11571151 1.033 15999539
0.13634223 -0.1166085 1.033 14734973
0.14933248 -0.19251297 1.036 3765963
0.15203127 -0.19251297 1.036 9851006
0.18531622 -0.19431219 1.036 13618890
0.18711542 -0.19341257 1.036 13289431
0.14933248 -0.19071381 1.036 4421574
0.15203127 -0.19071381 1.036 15999539
0.18711542 -0.19071381 1.036 13420251
0.14873277 -0.18771514 1.036 8215185
0.15173142 -0.18831488 1.036 12468069
0.18771516 -0.18771514 1.036 14636391
0.19431216 -0.18891461 1.036 14340052
0.14573413 -0.18441662 1.036 4478111
0.14813305 -0.18471651 1.036 8408971
0.15113167 -0.18531623 1.036 5208263
0.18891461 -0.18441662 1.036 15999539
0.19071379 -0.18441662 1.036 14575226
0.19251299 -0.18441662 1.036 15563398
0.14303535 -0.18171786 1.036 8355738
0.14573413 -0.18171786 1.036 3568827
0.14843291 -0.18171786 1.036 10891643
0.18891461 -0.18171786 1.036 11515854
0.19071379 -0.18171786 1.036 12953027
0.19251299 -0.18171786 1.036 15999539
0.14033656 -0.17991865 1.036 10987649
0.14393495 -0.17901906 1.036 15999539
0.14573413 -0.17901906 1.036 4621505
0.14843291 -0.17901906 1.036 11559297
0.18891461 -0.17901906 1.036 14054786
0.19071379 -0.17901906 1.036 15999539
0.19251299 -0.17901906 1.036 14773885
0.14393495 -0.1754207 1.036 15999539
0.14573413 -0.1754207 1.036 13197952
0.14753333 -0.1754207 1.036 13004670
0.18891461 -0.17452113 1.036 13160910
0.19071379 -0.1754207 1.036 14643064
0.19251299 -0.1754207 1.036 15999539
0.14393495 -0.17272192 1.036 10531038
0.14573413 -0.17272192 1.036 10595282
0.14753333 -0.17272192 1.036 9543622
0.18891461 -0.17272192 1.036 13293011
0.19071379 -0.17272192 1.036 12362184
0.19251299 -0.17272192 1.036 11512527
0.14393495 -0.17002314 1.036 15999539
0.14573413 -0.17002314 1.036 15999539
0.14753333 -0.17002314 1.036 15999539
0.18891461 -0.17092276 1.036 15999539
0.19071379 -0.17002314 1.036 12300511
0.19251299 -0.17002314 1.036 15999539
0.14393495 -0.16642478 1.036 12276846
0.14573413 -0.16642478 1.036 12075120
0.19071379 -0.16732438 1.036 14280439
0.19251299 -0.16642478 1.036 14713232
0.14033656 -0.16372602 1.036 10069404
0.14213575 -0.16372602 1.036 10656180
0.1340394 -0.16192681 1.036 14976912
0.1367382 -0.16102719 1.036 9537470
0.14303535 -0.16102719 1.036 15999539
0.14573413 -0.16012758 1.036 15999539
0.1367382 -0.15832844 1.036 12235975
0.13853739 -0.15652923 1.036 15999539
0.14303535 -0.15742883 1.036 12934522
0.1367382 -0.15473007 1.036 12564171
0.13853739 -0.15473007 1.036 13222336
0.14303535 -0.15473007 1.036 8094901
0.1367382 -0.15203127 1.036 11974342
0.13853739 -0.15203127 1.036 15999539
0.14273548 -0.15233114 1.036 13715553
0.13044104 -0.1484329 1.036 15777214
0.1340394 -0.14933248 1.036 13091022
0.14213575 -0.14843291 1.036 13067135
0.19791053 -0.14843291 1.036 15171721
0.14033656 -0.1457341 1.036 9350098
0.14303535 -0.1457341 1.036 9939402
0.19791053 -0.1457341 1.036 13423552
0.14213575 -0.14303535 1.036 15999539
0.19791053 -0.14213575 1.036 9283543
0.14033656 -0.13943699 1.036 14639730
0.13044104 -0.13673821 1.036 15999539
0.14033656 -0.13673821 1.036 13213364
0.13044104 -0.1340394 1.036 14565713
0.1331398 -0.1340394 1.036 12145275
0.14033656 -0.1340394 1.036 15999539
0.13044104 -0.13044101 1.036 15999539
0.1331398 -0.13134062 1.036 15999539
0.1367382 -0.13044101 1.036 11164028
0.13853739 -0.13044101 1.036 11230847
0.134939 -0.12774226 1.036 5861818
0.1367382 -0.12774226 1.036 6711229
0.13134061 -0.1241439 1.036 15999539
0.1340394 -0.1241439 1.036 15999539
0.1367382 -0.12594305 1.036 15999539
0.12594306 -0.1214451 1.036 15999539
0.12774226 -0.12054552 1.036 1245479
0.13134061 -0.12054552 1.036 15999539
0.1340394 -0.12234469 1.036 15999539
0.12774226 -0.11874631 1.036 1245503
0.13044104 -0.11874631 1.036 15894121
0.1367382 -0.11874631 1.036 15999539
0.1367382 -0.11514794 1.036 15999539
0.14615613 -0.19307044 1.039 6915021
0.14796054 -0.19307044 1.039 5339596
0.19036385 -0.19307044 1.039 12898523
0.19307046 -0.19307044 1.039 13157066
0.14555466 -0.19006312 1.039 15999539
0.14796054 -0.19036385 1.039 15999539
0.19036385 -0.19036385 1.039 15222869
0.19307046 -0.19036385 1.039 14643838
0.14074293 -0.18765724 1.039 9927012
0.14254734 -0.18765724 1.039 10780534
0.14525393 -0.18765724 1.039 6060947
0.19126606 -0.18765724 1.039 13086911
0.19397265 -0.18765724 1.039 14737369
0.13713416 -0.18404844 1.039 11639221
0.13984075 -0.18495065 1.039 15999539
0.14254734 -0.18495065 1.039 13128012
0.14435174 -0.18495065 1.039 15999539
0.19487482 -0.18404844 1.039 15924208
0.13352536 -0.18043967 1.039 15999539
0.13653269 -0.18104115 1.039 13726852
0.13954002 -0.18164262 1.039 12346478
0.14254734 -0.18043967 1.039 15999539
0.19487482 -0.18224408 1.039 15529456
0.13352536 -0.1786353 1.039 15398393
0.13623196 -0.1786353 1.039 13615293
0.13984075 -0.1786353 1.039 15999539
0.14254734 -0.1786353 1.039 15999539
0.19487482 -0.1786353 1.039 15134158
0.13623196 -0.17592868 1.039 15999539
0.13984075 -0.17592867 1.039 12671609
0.14254734 -0.17592868 1.039 11294584
0.19487482 -0.17592868 1.039 15566723
0.14074293 -0.17231989 1.039 12935810
0.14254734 -0.17231989 1.039 13198469
0.19487482 -0.17231989 1.039 15040132
0.14074293 -0.16961329 1.039 8883408
0.14254734 -0.16961329 1.039 15999539
0.19487482 -0.16961329 1.039 13812701
0.13713416 -0.16600449 1.039 12434355
0.14014149 -0.16660598 1.039 15999539
0.14254734 -0.16690671 1.039 12473207
0.19487482 -0.16690671 1.039 15657698
0.13623196 -0.16420013 1.039 13265781
0.13954002 -0.16299719 1.039 13783642
0.19487482 -0.16420013 1.039 14673628
0.13984075 -0.16059129 1.039 9735387
0.14014147 -0.15818545 1.039 14375276
0.14074293 -0.15427592 1.039 13267060
0.19848363 -0.15427592 1.039 15999539
0.14074293 -0.15156932 1.039 15999539
0.19938584 -0.15156932 1.039 16223630
0.20209245 -0.15156932 1.039 16184049
0.13352536 -0.14796054 1.039 15999539
0.13653269 -0.148562 1.039 12419730
0.13984075 -0.14886272 1.039 12933505
0.20028804 -0.14886272 1.039 15999539
0.20299464 -0.14886272 1.039 16446950
0.13081877 -0.14525393 1.039 15999539
0.13352536 -0.14525393 1.039 14838138
0.13623196 -0.14525393 1.039 13853566
0.13954002 -0.14495321 1.039 13652070
0.20028804 -0.14525393 1.039 15437949
0.20299464 -0.14615612 1.039 14088129
0.13623196 -0.14254734 1.039 12497862
0.13984075 -0.14254734 1.039 15999539
0.20028804 -0.14254734 1.039 15999539
0.13352536 -0.13893855 1.039 11707126
0.13653269 -0.13954002 1.039 15999539
0.13893856 -0.13984075 1.039 14574453
0.20028804 -0.14074296 1.039 73833
0.13352536 -0.13713418 1.039 9474278
0.13623196 -0.13623196 1.039 12408696
0.13893856 -0.13623196 1.039 14637941
0.13623196 -0.13352534 1.039 15999539
0.13893856 -0.13352534 1.039 15999539
0.13352536 -0.12991653 1.039 15999539
0.13532975 -0.13081875 1.039 11097719
0.13081877 -0.12720996 1.039 12142672
0.13352536 -0.12720996 1.039 12085877
0.13532975 -0.12630776 1.039 15999539
0.14295892 -0.19362791 1.0420001 8356309
0.14476854 -0.19362791 1.0420001 7635663
0.13933973 -0.1900087 1.0420001 15999539
0.14235573 -0.19061193 1.0420001 15999539
0.14476854 -0.19181834 1.0420001 15999539
0.13753012 -0.18638949 1.0420001 15999539
0.13933973 -0.18819907 1.0420001 9138581
0.13572051 -0.18457986 1.0420001 13620685
0.13572051 -0.18277028 1.0420001 15999539
0.19724713 -0.17734145 1.0420001 16711399
0.1330061 -0.17553186 1.0420001 16186619
0.19724713 -0.17553186 1.0420001 16711403
0.1333077 -0.17311904 1.0420001 15727607
0.13662532 -0.17281744 1.0420001 13275309
0.13933973 -0.17281744 1.0420001 12608641
0.19724713 -0.17281744 1.0420001 16711401
0.13753012 -0.16919823 1.0420001 13063289
0.13933973 -0.16919823 1.0420001 12146045
0.19724713 -0.16919823 1.0420001 16711407
0.13391089 -0.16467424 1.0420001 15999539
0.20267597 -0.14476857 1.0420001 12038249
0.20448555 -0.14476857 1.0420001 11047514
0.1333077 -0.14235574 1.0420001 14205642
0.13572051 -0.14114934 1.0420001 15999539
0.20267597 -0.14295892 1.0420001 6033410
0.20448555 -0.14295892 1.0420001 5508097
0.1397409 -0.19237059 1.0450001 5477829
0.14155568 -0.19237059 1.0450001 15999539
0.13701867 -0.19055575 1.0450001 15999539
0.13429642 -0.18874091 1.0450001 15999539
0.1367162 -0.18813598 1.0450001 15999539
0.13468197 -0.19292286 1.0480001 14014671
0.13650201 -0.19292286 1.0480001 13885400
0.13832204 -0.19292286 1.0480001 9679841
0.20020294 -0.1710825 1.0480001 16580350
0.20020294 -0.1692625 1.0480001 16580094
0.20202297 -0.1692625 1.0480001 16448762
0.13650201 -0.16744246 1.0480001 12040147
0.13519602 -0.19183221 1.052 15999539
0.1361095 -0.1717355 1.052 13163751
0.13336904 -0.16899505 1.052 15999539
0.13580501 -0.16929957 1.052 15999539
0.13191721 -0.16672871 1.0550001 15999539
0.13374938 -0.16672871 1.0550001 15999539
