# .PCD v0.7 - Point Cloud Data file format
VERSION 0.7
FIELDS x y z rgba
SIZE 4 4 4 4
TYPE F F F U
COUNT 1 1 1 1
WIDTH 927
HEIGHT 1
VIEWPOINT 0 0 0 1 0 0 0
POINTS 927
DATA ascii
0.12470916 -0.12046736 0.97700006 13567721
0.12725426 -0.12046736 0.97700006 16314347
0.12499195 -0.11820506 0.97700012 13567721
0.12810263 -0.11877062 0.97700006 16050873
0.1306477 -0.11877062 0.97700006 16050878
0.13234441 -0.11877062 0.97700006 15985601
0.12555753 -0.11368048 0.97700006 13567721
0.12810263 -0.1128321 0.97700006 14303922
0.1306477 -0.11198373 0.97700006 16711265
0.13234441 -0.11283211 0.97700006 13567721
0.1306477 -0.11028704 0.97700006 16711325
0.13234441 -0.11028704 0.97700006 16711323
0.12253921 -0.12934697 0.98000002 13567721
0.12424113 -0.12934697 0.98000002 4292329
0.127645 -0.12934697 0.98000002 4226790
0.12168825 -0.127645 0.98000002 10173418
0.12509209 -0.127645 0.98000002 13567721
0.127645 -0.127645 0.98000002 6842858
0.13019791 -0.127645 0.98000002 10367720
0.11828437 -0.1250921 0.98000002 12151020
0.12168825 -0.12509209 0.98000002 12348651
0.12509209 -0.12509209 0.98000002 13567721
0.127645 -0.12509209 0.98000002 11261677
0.13019791 -0.1250921 0.98000002 13567721
0.11573146 -0.12168823 0.98000002 16249583
0.11828437 -0.12168823 0.98000002 15644912
0.12168825 -0.12168823 0.98000002 15710442
0.12509209 -0.12253918 0.98000002 16577259
0.127645 -0.12253918 0.98000002 16577004
0.13019791 -0.12168823 0.98000002 15644397
0.13360175 -0.12083728 0.98000002 13567721
0.13700563 -0.12083728 0.98000002 14908393
0.11232761 -0.11913532 0.98000002 15919556
0.1148805 -0.11828437 0.98000002 14710996
0.11828436 -0.11828437 0.98000002 15314616
0.12168825 -0.11828437 0.98000002 14776001
0.12424113 -0.11743341 0.98000002 13567721
0.127645 -0.11743341 0.98000002 16180612
0.13019791 -0.11743341 0.98000002 13567721
0.13388541 -0.11800072 0.98000002 14438606
0.13672197 -0.11856803 0.98000002 15179473
0.13955855 -0.11913532 0.98000002 13567721
0.11573146 -0.1148805 0.98000002 16181795
0.11828436 -0.1148805 0.98000002 15577947
0.12197191 -0.11516415 0.98000002 16313662
0.12480845 -0.11516415 0.98000002 14439091
0.127645 -0.11573146 0.98000002 16378185
0.13048157 -0.11516415 0.98000002 15506566
0.13388541 -0.11516415 0.98000002 15506571
0.13700563 -0.11402955 0.98000002 15040117
0.13445273 -0.1123276 0.98000002 16711257
0.13700563 -0.1123276 0.98000002 15106715
0.13445273 -0.11062568 0.98000002 13567721
0.13700563 -0.11062568 0.98000002 13567721
0.12291434 -0.14510716 0.98300004 5081059
0.12462145 -0.14510716 0.98300004 4949990
0.1263286 -0.14510716 0.98300004 5343209
0.12291434 -0.14254647 0.98300004 13567721
0.12462145 -0.14254647 0.98300004 13567721
0.1263286 -0.14254647 0.98300004 13567721
0.12234529 -0.13884766 0.98300004 10695143
0.12462145 -0.13913219 0.98300004 5146844
0.12291434 -0.1365715 0.98300004 5081057
0.12462145 -0.1365715 0.98300004 5146845
0.12718219 -0.1365715 0.98300004 5147355
0.13059647 -0.1365715 0.98300004 8406754
0.13315718 -0.1365715 0.98300004 13567721
0.11950003 -0.13315721 0.98300004 4162266
0.12206077 -0.13401076 0.98300004 13567721
0.12462145 -0.13401076 0.98300004 5213920
0.12718219 -0.13401076 0.98300004 9390564
0.13059647 -0.13401076 0.98300004 13567721
0.13315718 -0.13401076 0.98300004 10765280
0.11523218 -0.13059647 0.98300004 10702045
0.11864646 -0.13059647 0.98300004 8601827
0.12177625 -0.130881 0.98300004 7626214
0.12462145 -0.13145003 0.98300004 4753892
0.12689766 -0.130881 0.98300004 7691236
0.13059647 -0.13059647 0.98300004 7368165
0.13315718 -0.13059647 0.98300004 9914081
0.11267146 -0.12632859 0.98300004 13567721
0.11523218 -0.12718217 0.98300004 10580943
0.11864646 -0.12803575 0.98300004 5921506
0.13401076 -0.12718217 0.98300004 9843177
0.13657147 -0.12718217 0.98300004 10374889
0.11267146 -0.12462147 0.98300004 13033703
0.11523218 -0.12462147 0.98300004 13137641
0.13401076 -0.12462147 0.98300004 12317680
0.11267146 -0.12206075 0.98300004 13567721
0.11437862 -0.12206075 0.98300004 14974186
0.13401076 -0.12291431 0.98300004 13567721
0.13657147 -0.12291431 0.98300004 16510958
0.1391322 -0.12206075 0.98300004 14908911
0.14169289 -0.12120719 0.98300004 16316403
0.11039528 -0.11893098 0.98300004 14308063
0.11267146 -0.1177929 0.98300004 15917463
0.1391322 -0.1177929 0.98300004 13567721
0.14169289 -0.11864646 0.98300004 14842056
0.11267146 -0.11608574 0.98300004 13567721
0.11437862 -0.11523218 0.98300004 14776474
0.12120719 -0.11437862 0.98300004 13567721
0.13657147 -0.11608574 0.98300004 16442962
0.13941672 -0.11551671 0.98300004 15375234
0.14169289 -0.11523218 0.98300004 14972793
0.11267146 -0.11267145 0.98300004 16708692
0.11437862 -0.11267145 0.98300004 16708946
0.13998577 -0.11267145 0.98300004 16711246
0.14169289 -0.11267145 0.98300004 16710481
0.11267146 -0.11011075 0.98300004 16711331
0.11437862 -0.11011075 0.98300004 16711332
0.13998577 -0.11096434 0.98300004 13567721
0.12401971 -0.1539555 0.98500007 5214437
0.12658563 -0.1539555 0.98500007 6524388
0.12401971 -0.15138957 0.98500007 9325287
0.12715584 -0.15110448 0.98500007 13567721
0.11917296 -0.14768325 0.98500007 10760936
0.12145379 -0.14796834 0.98500007 5081573
0.12401971 -0.14796834 0.98500007 9193448
0.12744094 -0.14796834 0.98500007 9324774
0.13000688 -0.14796834 0.98500007 5080800
0.11974317 -0.14540242 0.98500007 13567721
0.12145379 -0.14540242 0.98500007 5212385
0.12829626 -0.14540242 0.98500007 13567721
0.13086219 -0.14540242 0.98500007 4686053
0.11632192 -0.14198118 0.98500007 6330833
0.11917296 -0.14255139 0.98500007 13567721
0.12145379 -0.1428365 0.98500007 13567721
0.12829626 -0.1428365 0.98500007 6131178
0.13086219 -0.1428365 0.98500007 11084776
0.11632192 -0.13941526 0.98500007 7775968
0.11888786 -0.13941526 0.98500007 9061604
0.12145379 -0.14027059 0.98500007 4752610
0.12744094 -0.13941526 0.98500007 7432673
0.13086219 -0.13941526 0.98500007 11282153
0.1334281 -0.13855994 0.98500007 8423372
0.11290071 -0.13599403 0.98500007 13140638
0.11546662 -0.13599403 0.98500007 10713307
0.11888786 -0.13599403 0.98500007 8602082
0.12145379 -0.13684936 0.98500007 5080542
0.13513871 -0.13599403 0.98500007 13520594
0.11290071 -0.13342813 0.98500007 13534097
0.11546662 -0.13342813 0.98500007 10460103
0.11803254 -0.13342813 0.98500007 3371482
0.13599402 -0.13342813 0.98500007 11442351
0.10605825 -0.13000689 0.98500007 13567721
0.10947946 -0.13000689 0.98500007 14249611
0.11290071 -0.13086219 0.98500007 13467796
0.13599402 -0.13086219 0.98500007 10108631
0.13855995 -0.13086219 0.98500007 9914838
0.10691354 -0.12744093 0.98500007 13050585
0.10947946 -0.12744093 0.98500007 12730570
0.11176029 -0.12772605 0.98500007 12276672
0.13941526 -0.12744093 0.98500007 13567721
0.14198118 -0.12658562 0.98500007 4029387
0.10691354 -0.12316438 0.98500007 13567721
0.10947946 -0.1240197 0.98500007 13331426
0.11119008 -0.1240197 0.98500007 13266917
0.13684934 -0.12487502 0.98500007 11856627
0.13970038 -0.12430482 0.98500007 11965929
0.14198118 -0.12316438 0.98500007 16513253
0.10691354 -0.12145379 0.98500007 16054260
0.10947946 -0.12145379 0.98500007 16119030
0.11119008 -0.12145379 0.98500007 13567721
0.10719865 -0.11917295 0.98500007 14175707
0.10947946 -0.11803256 0.98500007 13567721
0.11119008 -0.11632192 0.98500007 13567721
0.14283648 -0.1120454 0.98500007 15106753
0.12010787 -0.18016182 0.98800004 13567721
0.12096579 -0.16386145 0.98800004 9194216
0.12439744 -0.16300355 0.98800004 9784803
0.1166762 -0.1595719 0.98800004 13567721
0.12096579 -0.16042981 0.98800004 7565291
0.12439744 -0.16042981 0.98800004 11544550
0.12782909 -0.1595719 0.98800004 9849063
0.13040283 -0.1595719 0.98800004 7969776
0.11324457 -0.15614025 0.98800004 13567721
0.11610427 -0.1567122 0.98800009 13567721
0.11839204 -0.15699816 0.98800004 5740516
0.12096579 -0.15699816 0.98800004 7631078
0.12439744 -0.15699816 0.98800004 7236582
0.12782909 -0.15699816 0.98800004 10637031
0.13040283 -0.15699816 0.98800004 8430823
0.13297656 -0.15614025 0.98800004 10965989
0.13555031 -0.15614025 0.98800004 13567721
0.11238666 -0.1544244 0.98800004 10179050
0.11581831 -0.1544244 0.98800004 6921446
0.11839204 -0.1544244 0.98800004 6135010
0.12096579 -0.1544244 0.98800004 5871841
0.12868701 -0.1544244 0.98800004 13567721
0.13040283 -0.1544244 0.98800004 8365282
0.13297656 -0.1544244 0.98800004 13567721
0.13555031 -0.1544244 0.98800004 8495840
0.1098129 -0.15099277 0.98800004 6461664
0.11238665 -0.15185066 0.98800004 9982441
0.1158183 -0.15185066 0.98800004 13567721
0.11839204 -0.15185066 0.98800004 5541347
0.12096579 -0.15185066 0.98800004 11544807
0.12868701 -0.15270855 0.98800004 13567721
0.13040283 -0.15185066 0.98800004 6196959
0.13297656 -0.15185066 0.98800004 13567721
0.13555031 -0.15185066 0.98800004 11096807
0.10895498 -0.14841901 0.98800004 8024547
0.11238666 -0.14841901 0.98800004 7827948
0.11581831 -0.14841901 0.98800004 9456361
0.11839204 -0.14927691 0.98800004 5213670
0.13297656 -0.14841901 0.98800004 7758563
0.13640822 -0.14841901 0.98800004 13567721
0.10895498 -0.14498734 0.98800004 7367646
0.11238666 -0.14498734 0.98800004 7366116
0.11581831 -0.14498734 0.98800004 9258975
0.11839204 -0.14498734 0.98800004 9457378
0.13383447 -0.14498734 0.98800004 8030427
0.13640821 -0.14498734 0.98800004 11887071
0.10895498 -0.14241362 0.98800004 5408470
0.11238666 -0.14241362 0.98800004 6260181
0.1149604 -0.14241362 0.98800004 7644371
0.13383447 -0.14241362 0.98800004 8621272
0.13640821 -0.14241362 0.98800004 13157327
0.10638127 -0.13898195 0.98800004 4815068
0.10895498 -0.13983987 0.98800004 10110430
0.11238665 -0.13983989 0.98800004 13567721
0.1149604 -0.13983989 0.98800004 13567721
0.13383447 -0.14069781 0.98800004 8489682
0.13640821 -0.13983987 0.98800004 13383135
0.13898197 -0.13898195 0.98800004 12440784
0.10123377 -0.13555031 0.98800004 8755904
0.10380752 -0.13640822 0.98800004 11150821
0.10638127 -0.13640822 0.98800004 5671132
0.10895498 -0.13640822 0.98800004 10175960
0.11152874 -0.13640822 0.98800004 13387214
0.13726613 -0.13640822 0.98800004 13567721
0.13898197 -0.13640822 0.98800004 13567721
0.10123377 -0.13297659 0.98800004 8032202
0.10380752 -0.13297659 0.98800004 10176734
0.10638127 -0.13297659 0.98800004 10586311
0.10895498 -0.13297659 0.98800004 13451970
0.11152874 -0.13297659 0.98800004 13910715
0.14012587 -0.13326257 0.98800009 13516246
0.10123377 -0.13040285 0.98800004 7900873
0.10380752 -0.13040285 0.98800004 10847938
0.10809707 -0.13040285 0.98800004 14447519
0.11152874 -0.13040285 0.98800004 13567721
0.14069781 -0.13040285 0.98800004 9928376
0.14241362 -0.13040285 0.98800004 13567721
0.10123377 -0.12782907 0.98800004 7312594
0.10380752 -0.12782907 0.98800004 12141270
0.14241362 -0.12868701 0.98800004 8748736
0.10066183 -0.12411146 0.98800009 13142002
0.10380752 -0.12439743 0.98800004 13605106
0.10638127 -0.12525536 0.98800004 13156840
0.10809707 -0.12525536 0.98800004 13159137
0.14241362 -0.12525536 0.98800004 10277846
0.14412943 -0.1235395 0.98800004 13567721
0.09780214 -0.12010785 0.98800004 15985895
0.10066183 -0.12067981 0.98800009 15049193
0.10380752 -0.12096578 0.98800004 15382251
0.14470138 -0.12067981 0.98800009 14440172
0.10380752 -0.11839205 0.98800004 14709466
0.10638127 -0.11839205 0.98800004 13567721
0.14498734 -0.11839205 0.98800004 15984311
0.1475611 -0.11839205 0.98800004 16049591
0.11324457 -0.1149604 0.98800004 13567721
0.14470138 -0.11610427 0.98800009 14439072
0.1475611 -0.1166762 0.98800004 15982175
0.14412943 -0.11152875 0.98800004 13567721
0.1475611 -0.11238665 0.98800004 15105173
0.11358843 -0.18415092 0.99100006 13567721
0.11530948 -0.18501145 0.99100006 9390310
0.11760417 -0.18472461 0.99100006 10891750
0.12133309 -0.18501145 0.99100006 13567721
0.12477516 -0.18415092 0.99100006 3243741
0.12735671 -0.18415092 0.99100006 7501783
0.11358843 -0.18156938 0.99100006 9521896
0.11530948 -0.18156938 0.99100006 5278433
0.11789101 -0.18156938 0.99100006 7629279
0.12161994 -0.18185624 0.99100006 5146594
0.12477516 -0.1815694 0.99100006 11150823
0.12735671 -0.18156938 0.99100006 10305762
0.11014634 -0.17812729 0.99100006 5344746
0.11272791 -0.17812729 0.99100006 9390314
0.11530948 -0.17812729 0.99100006 9391848
0.11789101 -0.17812729 0.99100006 9522404
0.12133309 -0.17812729 0.99100006 6973668
0.12477517 -0.17812729 0.99100006 8405733
0.12735671 -0.17812729 0.99100006 10175202
0.12907775 -0.17726678 0.99100006 13567721
0.10498324 -0.17554572 0.99100006 4690664
0.10928582 -0.17554572 0.99100006 5278697
0.11272791 -0.17554572 0.99100006 5476075
0.11530948 -0.17554572 0.99100006 5542375
0.11789101 -0.17554572 0.99100006 6131940
0.12133309 -0.17554572 0.99100006 5868773
0.12477516 -0.17554572 0.99100006 5211875
0.12735671 -0.17554572 0.99100006 7372508
0.12907775 -0.17554572 0.99100006 9734366
0.10928582 -0.17382471 0.99100006 9258729
0.11301475 -0.17325103 0.99100006 13567721
0.11530948 -0.17296419 0.99100006 4688359
0.11789101 -0.17296419 0.99100006 9586919
0.12133309 -0.17296419 0.99100006 9521127
0.12477516 -0.17296419 0.99100006 13567721
0.12735671 -0.17296419 0.99100006 10307558
0.12907775 -0.17296419 0.99100006 13567721
0.13251984 -0.17210366 0.99100006 13567721
0.10957266 -0.16923527 0.99100006 8217064
0.1127279 -0.16952211 0.99100006 9324521
0.11530948 -0.16952211 0.99100006 5016039
0.11789101 -0.16952211 0.99100006 7432932
0.1213331 -0.16952211 0.99100006 7497957
0.12477516 -0.16952211 0.99100006 9718759
0.12735671 -0.16952211 0.99100006 6656232
0.12993827 -0.16952211 0.99100006 11175136
0.13251984 -0.16952211 0.99100006 14975201
0.10670429 -0.16521952 0.99100006 5278701
0.10957266 -0.16579321 0.99100006 8348906
0.11272791 -0.16608004 0.99100006 9521897
0.11530948 -0.16608004 0.99100006 5673703
0.11789101 -0.16608004 0.99100006 9850342
0.12133309 -0.16694057 0.99100006 5411045
0.12477516 -0.16608004 0.99100006 9784552
0.12735671 -0.16608004 0.99100006 6199524
0.12993827 -0.16608004 0.99100006 10649062
0.13338035 -0.16608004 0.99100006 15039726
0.13596189 -0.16608004 0.99100006 13395440
0.10928582 -0.16349849 0.99100006 9457387
0.11272791 -0.16349849 0.99100006 5279210
0.11530948 -0.16349849 0.99100006 5740776
0.11789101 -0.16349849 0.99100006 6331884
0.12735671 -0.16349849 0.99100006 5805030
0.12993827 -0.16349849 0.99100006 7444699
0.13338035 -0.16349849 0.99100006 13362151
0.13596189 -0.16349849 0.99100006 14215921
0.10928582 -0.16091694 0.99100006 9391336
0.11272791 -0.16091694 0.99100006 13567721
0.11530948 -0.16091694 0.99100006 5606886
0.11817785 -0.16120377 0.99100006 8479722
0.12735671 -0.16177744 0.99100006 5474277
0.12993827 -0.16177744 0.99100006 10438374
0.13338035 -0.16091694 0.99100006 11950056
0.13682242 -0.16091694 0.99100006 13567721
0.13940398 -0.16091694 0.99100006 12475368
0.10670429 -0.15833539 0.99100006 8369643
0.10928582 -0.15747488 0.99100006 7695591
0.11244106 -0.15776172 0.99100006 8281832
0.11530948 -0.15833539 0.99100006 13567721
0.13338035 -0.15833539 0.99100006 8363749
0.13710926 -0.15776172 0.99100006 10120420
0.13940398 -0.15747488 0.99100006 13567721
0.14112502 -0.15661436 0.99100006 8561124
0.10498324 -0.15403278 0.99100006 13567721
0.10670429 -0.15403278 0.99100006 10837738
0.10928582 -0.15403278 0.99100006 7957988
0.13768294 -0.15403278 0.99100006 10965989
0.13940398 -0.15403278 0.99100006 13567721
0.14112502 -0.15403278 0.99100006 13567721
0.10498324 -0.15145124 0.99100006 10597087
0.10670429 -0.15145124 0.99100006 8370666
0.1084253 -0.15145124 0.99100006 13567721
0.13768294 -0.15145124 0.99100006 8561644
0.13940398 -0.15145124 0.99100006 8495848
0.14112502 -0.15145124 0.99100006 8430051
0.10440956 -0.14858285 0.99100006 13567721
0.10670429 -0.14886966 0.99100006 11099876
0.13940398 -0.14886966 0.99100006 13567721
0.14112502 -0.14886966 0.99100006 11755492
0.10412272 -0.14542761 0.99100006 10967776
0.10670429 -0.14542761 0.99100006 5800663
0.13940398 -0.14542761 0.99100006 11757025
0.14112502 -0.14542761 0.99100006 13567721
0.10154115 -0.14112502 0.99100006 8167886
0.10412271 -0.14198554 0.99100006 9849057
0.10670429 -0.14198554 0.99100006 5146335
0.13940398 -0.14198554 0.99100006 12602847
0.14112502 -0.14198554 0.99100006 13567721
0.10154115 -0.13940397 0.99100006 8826057
0.10412272 -0.13940397 0.99100006 10044640
0.14112502 -0.13940397 0.99100006 11775196
0.10039379 -0.13710928 0.99100006 12204765
0.14198554 -0.13682243 0.99100006 12726239
0.099820122 -0.13338035 0.99100006 11816401
0.14284603 -0.13338035 0.99100006 12932816
0.14456709 -0.13251983 0.99100006 13567721
0.098099105 -0.12993827 0.99100006 9916379
0.099820122 -0.12993827 0.99100006 10309594
0.14514077 -0.12965143 0.99100006 13581275
0.097238585 -0.12735669 0.99100006 2655459
0.099820122 -0.12735669 0.99100006 13567721
0.14542761 -0.12735669 0.99100006 9453532
0.14800917 -0.12735669 0.99100006 5994716
0.094657019 -0.12391462 0.99100006 11252967
0.097238585 -0.12477516 0.99100006 12081901
0.099820122 -0.12563568 0.99100006 9279478
0.14571445 -0.125062 0.99100006 14373608
0.14800917 -0.12477516 0.99100006 13595884
0.092935979 -0.12047256 0.99100006 13567721
0.094657019 -0.12133309 0.99100006 13596648
0.096951745 -0.12161994 0.99100006 13980906
0.099820122 -0.12219362 0.99100006 15134958
0.14628813 -0.12219362 0.99100006 13567721
0.14858285 -0.12104625 0.99100006 13980140
0.15661435 -0.12047256 0.99100006 526124
0.092935979 -0.11789101 0.99100006 13567721
0.094657019 -0.11789101 0.99100006 15131335
0.097238585 -0.11789101 0.99100006 14920914
0.10068063 -0.11789102 0.99100006 14854343
0.10412272 -0.11703049 0.99100006 14578087
0.10670429 -0.11703049 0.99100006 15458404
0.10928582 -0.11703049 0.99100006 15391326
0.14973021 -0.11789101 0.99100006 14843355
0.15145123 -0.11789101 0.99100006 12572357
0.15317227 -0.11789101 0.99100006 10374859
0.15661435 -0.11789101 0.99100006 135484
0.094657019 -0.11530948 0.99100006 13567721
0.097238585 -0.11530948 0.99100006 14644641
0.10068063 -0.11530948 0.99100006 14644359
0.10412272 -0.11530948 0.99100006 13567721
0.10670429 -0.11530948 0.99100006 13567721
0.11186738 -0.11530948 0.99100006 13567721
0.14628813 -0.11530948 0.99100006 16247562
0.14886969 -0.11530948 0.99100006 16377886
0.15145123 -0.11530948 0.99100006 15065701
0.1540328 -0.11530948 0.99100006 11714661
0.15661435 -0.11530948 0.99100006 6127155
0.097238585 -0.11358842 0.99100006 14972564
0.10039379 -0.11301475 0.99100006 14504368
0.14628813 -0.11272791 0.99100006 15106746
0.14973021 -0.11272791 0.99100006 13567721
0.15145123 -0.11272791 0.99100006 15038630
0.15317227 -0.11358842 0.99100006 13567721
0.092075452 -0.11014634 0.99100006 15105699
0.094657019 -0.11014634 0.99100006 16710484
0.097238585 -0.11014634 0.99100006 16711270
0.099820122 -0.11014634 0.99100006 13567721
0.12428978 -0.19333965 0.99400002 79061
0.11047978 -0.19075027 0.99400002 9391072
0.11393229 -0.19075027 0.99400002 8865253
0.11565854 -0.19075027 0.99400002 4227295
0.11824788 -0.19075027 0.99400002 6250465
0.12170039 -0.19075026 0.99400002 13567721
0.12428978 -0.19075027 0.99400002 8405731
0.12687913 -0.19075027 0.99400002 10301148
0.11047978 -0.18643467 0.99400002 13567721
0.11393229 -0.18729778 0.99400002 9258213
0.11565854 -0.18816088 0.99400002 4752347
0.1185356 -0.18758547 0.99400008 7953629
0.12170039 -0.18816088 0.99400002 4884447
0.12428978 -0.18729778 0.99400002 3637982
0.12687913 -0.18729778 0.99400002 7821018
0.13033164 -0.18643467 0.99400002 13567721
0.10961665 -0.1847084 0.99400002 9521899
0.11220603 -0.1847084 0.99400002 5344234
0.13033164 -0.1847084 0.99400002 12501737
0.10530105 -0.18125589 0.99400002 5015774
0.10961665 -0.18211903 0.99400002 13567721
0.11220603 -0.18211904 0.99400002 13567721
0.13033164 -0.18211903 0.99400002 13253099
0.13292101 -0.18211904 0.99400002 13265635
0.10616417 -0.17866652 0.99400002 11479016
0.10875353 -0.17866653 0.99400002 13567721
0.13061935 -0.17895424 0.99400008 12157670
0.13349642 -0.17837882 0.99400008 13405148
0.1035748 -0.17521404 0.99400002 10178794
0.10645189 -0.17492634 0.99400008 7691492
0.13119476 -0.17521404 0.99400002 12178397
0.13378412 -0.17521404 0.99400002 13842917
0.1035748 -0.17262466 0.99400002 13567721
0.10616418 -0.17262466 0.99400002 8930278
0.10961665 -0.17262466 0.99400002 9127400
0.11220603 -0.17262466 0.99400002 13567721
0.13119476 -0.17262466 0.99400002 12178649
0.13464722 -0.17262466 0.99400002 13567721
0.13637348 -0.17262466 0.99400002 10858451
0.1035748 -0.1700353 0.99400002 6721757
0.10616418 -0.1700353 0.99400002 13567721
0.10875353 -0.17089844 0.99400002 5345767
0.13464722 -0.1700353 0.99400002 13567721
0.13637348 -0.1700353 0.99400002 13567721
0.13809974 -0.1700353 0.99400002 12145893
0.1035748 -0.16571967 0.99400002 7908583
0.10587647 -0.16687052 0.99400008 8020202
0.10875353 -0.16744594 0.99400002 6001644
0.13896286 -0.16658281 0.99400002 13724141
0.1035748 -0.16313033 0.99400002 9349600
0.10616418 -0.16313033 0.99400002 9208298
0.13896286 -0.16399346 0.99400002 14416373
0.14155224 -0.16313033 0.99400002 13992685
0.1035748 -0.16054097 0.99400002 10658234
0.10616418 -0.16054097 0.99400002 9810653
0.14155224 -0.16054097 0.99400002 11774185
0.1035748 -0.15795158 0.99400002 12538070
0.10587647 -0.15766388 0.99400008 11813098
0.14155224 -0.15881468 0.99400002 13567721
0.10098542 -0.1553622 0.99400002 14217439
0.1035748 -0.15449907 0.99400002 13066975
0.10098542 -0.15104659 0.99400002 13516264
0.1035748 -0.15104659 0.99400002 12998111
0.09753295 -0.14845721 0.99400002 7569862
0.10098542 -0.14845721 0.99400002 7246301
0.14327846 -0.14845721 0.99400002 11187420
0.097820662 -0.14615554 0.99400008 11630303
0.10098542 -0.14586784 0.99400002 12464614
0.098396078 -0.14241534 0.99400002 13198560
0.10069772 -0.14270306 0.99400008 11564249
0.098396078 -0.13809976 0.99400002 14721447
0.1001223 -0.13982598 0.99400002 11513276
0.14327846 -0.13982598 0.99400002 11049418
0.098396078 -0.13637348 0.99400002 13567721
0.14500472 -0.13637348 0.99400002 10463167
0.098396078 -0.13378413 0.99400002 12799184
0.14615555 -0.13407186 0.99400008 12024015
0.14845721 -0.132921 0.99400002 13567721
0.15018348 -0.132921 0.99400002 8493991
0.094943568 -0.1294685 0.99400002 13567721
0.096669823 -0.13033164 0.99400002 13567721
0.14673096 -0.13119477 0.99400002 13567721
0.14845721 -0.13033164 0.99400002 13567721
0.15075889 -0.13004392 0.99400008 10162372
0.094943568 -0.12687913 0.99400002 7109858
0.15104659 -0.12687913 0.99400002 13567721
0.093217313 -0.12428975 0.99400002 13567721
0.15018348 -0.12428975 0.99400002 11386823
0.15708846 -0.12428975 0.99400002 2363670
0.089764841 -0.12083726 0.99400002 13567721
0.091491066 -0.12083726 0.99400002 13567721
0.093217313 -0.12256352 0.99400002 12904420
0.15133429 -0.1219881 0.99400008 12339169
0.15449908 -0.12083726 0.99400002 7799954
0.15708846 -0.12256352 0.99400002 1445401
0.082859829 -0.11738476 0.99400002 16246740
0.084586076 -0.11738476 0.99400002 13567721
0.091491066 -0.1182479 0.99400002 13567721
0.1553622 -0.1182479 0.99400002 4534642
0.091491066 -0.11565854 0.99400002 15720841
0.093217313 -0.11565854 0.99400002 15589498
0.10961665 -0.11565854 0.99400002 14841717
0.091491066 -0.11306916 0.99400002 14907528
0.094080441 -0.11306916 0.99400002 14907779
0.09753295 -0.11220605 0.99400002 15041160
0.10184854 -0.11220605 0.99400002 13567721
0.1035748 -0.11306916 0.99400002 16577615
0.10530105 -0.11306916 0.99400002 15104402
0.10990437 -0.11335687 0.99400008 14571728
0.11220603 -0.11306916 0.99400002 16709752
0.10184854 -0.11047978 0.99400002 13567721
0.1035748 -0.11047978 0.99400002 16711317
0.1064846 -0.19219169 0.99700004 7246040
0.10908176 -0.19219169 0.99700004 6264022
0.11254469 -0.19219169 0.99700004 4295900
0.1220677 -0.19392316 0.99700004 144854
0.12726206 -0.19392316 0.99700004 2437068
0.130725 -0.19305743 0.99700004 11952102
0.13332218 -0.19305742 0.99700004 12833762
0.1064846 -0.19046026 0.99700004 13567721
0.10908176 -0.19046026 0.99700004 13567721
0.11254469 -0.19046026 0.99700004 13567721
0.130725 -0.19046026 0.99700004 13556448
0.13332218 -0.19046026 0.99700004 13567721
0.1064846 -0.18786305 0.99700004 11478247
0.10965892 -0.18815163 0.9970001 10890984
0.11254469 -0.18786305 0.99700004 9323494
0.130725 -0.18872876 0.99700004 13567721
0.13332218 -0.18786305 0.99700004 13156312
0.1350536 -0.18699734 0.99700004 12761805
0.1038874 -0.18440014 0.99700004 5930450
0.10648461 -0.18440014 0.99700004 7300832
0.13332218 -0.18526587 0.99700004 13028061
0.13563076 -0.18411158 0.9970001 13124319
0.1038874 -0.18093723 0.99700004 5803740
0.10735033 -0.18180296 0.99700004 5344739
0.13591933 -0.18093723 0.99700004 12551891
0.1038874 -0.17834005 0.99700004 6263010
0.13678508 -0.17834005 0.99700004 12100813
0.13851653 -0.17834005 0.99700004 12102604
0.10215594 -0.17574283 0.99700004 11295719
0.13678508 -0.17574283 0.99700004 12607965
0.1390937 -0.17545426 0.9970001 12994787
0.10042448 -0.17314565 0.99700004 10069975
0.10215594 -0.17227994 0.99700004 11162340
0.13967085 -0.17256853 0.9970001 12728032
0.10215594 -0.16968274 0.99700004 13567721
0.140248 -0.16968274 0.99700004 10919903
0.14284518 -0.16968274 0.99700004 11115993
0.1027331 -0.16737416 0.9970001 10185441
0.14284518 -0.16708559 0.99700004 13581288
0.10215594 -0.16362266 0.99700004 13567721
0.1437109 -0.16362266 0.99700004 13567721
0.10215594 -0.16015975 0.99700004 11816920
0.1437109 -0.16015975 0.99700004 12866275
0.10042448 -0.15756258 0.99700004 13567721
0.10215594 -0.15756258 0.99700004 13567721
0.1437109 -0.15756258 0.99700004 8627684
0.098693043 -0.15496537 0.99700004 13065186
0.10042448 -0.15409963 0.99700004 13567721
0.10215594 -0.15409963 0.99700004 14611941
0.1437109 -0.15496537 0.99700004 13567721
0.14544237 -0.15583111 0.99700004 9865183
0.097827315 -0.15150246 0.99700004 12155852
0.1437109 -0.15150246 0.99700004 13567721
0.14544237 -0.15150246 0.99700004 9149912
0.095230125 -0.14803955 0.99700004 8628424
0.1437109 -0.14717381 0.99700004 13567721
0.14544237 -0.14803955 0.99700004 9545435
0.09696158 -0.14544238 0.99700004 13567721
0.1437109 -0.14544238 0.99700004 10138586
0.14544237 -0.14544238 0.99700004 8424662
0.09696158 -0.14284518 0.99700004 12672740
0.1437109 -0.14284518 0.99700004 13567721
0.14544237 -0.14284518 0.99700004 10466762
0.097538739 -0.13967083 0.9970001 13530299
0.14544237 -0.13938226 0.99700004 10456506
0.14717382 -0.13851655 0.99700004 13567721
0.09696158 -0.13591936 0.99700004 13519555
0.14832813 -0.13620794 0.9970001 11049139
0.15063675 -0.13505363 0.99700004 13567721
0.095230125 -0.13332216 0.99700004 11702209
0.09696158 -0.13332216 0.99700004 13567721
0.15236817 -0.13332216 0.99700004 8692858
0.09436439 -0.130725 0.99700004 13567721
0.15236817 -0.13159074 0.99700004 3218042
0.093498655 -0.12726206 0.99700004 13567721
0.15496537 -0.12726206 0.99700004 1049632
0.15756257 -0.12726206 0.99700004 2494738
0.091767192 -0.12466487 0.99700004 7966419
0.15236817 -0.12466487 0.99700004 5737119
0.15496537 -0.12466487 0.99700004 658216
0.086572833 -0.12120195 0.99700004 13567721
0.088304304 -0.12120195 0.99700004 13567721
0.091767192 -0.12293343 0.99700004 13567721
0.15496537 -0.12293343 0.99700004 7603317
0.082244195 -0.11947053 0.99700004 13567721
0.085995674 -0.11889337 0.9970001 13567721
0.088304304 -0.11860479 0.99700004 13567721
0.090035766 -0.11860479 0.99700004 15592149
0.086572833 -0.11600761 0.99700004 15656917
0.090035766 -0.11600761 0.99700004 15457432
0.10735033 -0.11427613 0.99700004 16707650
0.10333167 -0.19277 1 8224477
0.13632834 -0.19277 1 12831711
0.10333167 -0.19016501 1 11347686
0.13632834 -0.19016501 1 13567721
0.10072666 -0.18756002 1 4880860
0.10333167 -0.18756002 1 5077461
0.13719666 -0.18756002 1 12433611
0.13893335 -0.18756002 1 11974601
0.10072666 -0.18495502 1 9715935
0.10246333 -0.18495502 1 13567721
0.13719666 -0.18582334 1 13567721
0.13951224 -0.18466559 1 12615380
0.10072666 -0.18148166 1 10111966
0.10246333 -0.18148166 1 10178272
0.13980168 -0.18148166 1 13185507
0.10072666 -0.17800833 1 10701284
0.10246333 -0.17887667 1 13567721
0.14067 -0.17800833 1 13567721
0.14240669 -0.17800833 1 13130201
0.14414331 -0.17714 1 13567721
0.098990016 -0.17540334 1 10865117
0.10072666 -0.17540334 1 13567721
0.14240669 -0.17540334 1 12365026
0.14501166 -0.17540334 1 13815522
0.14761667 -0.17540334 1 16710640
0.098990016 -0.17279834 1 13567721
0.10072666 -0.17193002 1 13567721
0.14240669 -0.17279834 1 11905488
0.14501166 -0.17279834 1 13711587
0.14761667 -0.17193002 1 13567721
0.098990016 -0.16932499 1 10504157
0.10072666 -0.16932499 1 10701020
0.14588 -0.16932499 1 14207695
0.14819556 -0.16903555 1 15641327
0.098990016 -0.16671999 1 9409231
0.10072666 -0.16671999 1 10204878
0.14588 -0.16671999 1 15061216
0.14761667 -0.16671999 1 16514031
0.098990016 -0.16411501 1 13567721
0.10072666 -0.16411501 1 11491033
0.14588 -0.16411501 1 14645734
0.14761667 -0.16411501 1 13567721
0.098411128 -0.16035223 1 11809251
0.10072666 -0.16064167 1 11423456
0.14588 -0.16064167 1 12169688
0.14761667 -0.16064167 1 14119398
0.086833335 -0.15630001 1 13567721
0.088570014 -0.15716836 1 12473573
0.090306684 -0.15630001 1 13567721
0.095516667 -0.15630001 1 11974858
0.097832233 -0.15745781 1 12729825
0.14588 -0.15803669 1 10398693
0.148485 -0.15716836 1 13461732
0.088570014 -0.15456332 1 12377060
0.090306684 -0.15456332 1 13567721
0.095516667 -0.15456332 1 11646899
0.097253345 -0.15456332 1 13567721
0.14588 -0.15456332 1 9342938
0.148485 -0.15456332 1 11973598
0.095516667 -0.15195832 1 10332348
0.148485 -0.15195832 1 13567721
0.093779996 -0.14761665 1 13567721
0.148485 -0.14848499 1 12082146
0.095516667 -0.14501166 1 11581139
0.148485 -0.14501166 1 11292129
0.095516667 -0.14240669 1 13567721
0.148485 -0.14240669 1 10653896
0.15109003 -0.14240669 1 13567721
0.094937786 -0.13951224 1 12860373
0.14877445 -0.14009112 1 13055447
0.15195835 -0.13980168 1 14253547
0.15630001 -0.13893336 1 16711410
0.094648331 -0.13632834 1 13651400
0.15224779 -0.13661778 1 13620156
0.15456334 -0.13632834 1 16709322
0.15630001 -0.13632834 1 16318169
0.093779996 -0.13372333 1 12425142
0.15456334 -0.13372333 1 8957581
0.15630001 -0.13372333 1 8479649
0.092043325 -0.13111836 1 13567721
0.093779996 -0.13198671 1 13567721
0.15456334 -0.13111836 1 1115985
0.15630001 -0.13111836 1 918057
0.092043325 -0.12764499 1 10309084
0.090306684 -0.12330335 1 13567721
0.083359987 -0.12156665 1 13567721
0.085096657 -0.12156665 1 13567721
0.088570014 -0.11635668 1 15259830
0.090306684 -0.11461999 1 13567721
0.10767335 -0.11288335 1 13567721
0.10941 -0.11201501 1 16711326
0.11114667 -0.11114667 1 16711340
0.10941 -0.10941003 1 16711109
0.11114667 -0.10941003 1 16711096
0.13935013 -0.1933483 1.003 13422313
0.097545102 -0.19160645 1.003 4150251
0.10015791 -0.1907355 1.003 5856480
0.13935013 -0.1907355 1.003 13287375
0.14196296 -0.18986456 1.003 13394133
0.099286981 -0.18725175 1.003 9191904
0.14196296 -0.18725176 1.003 12869079
0.097545102 -0.18463896 1.003 5864642
0.099286981 -0.18463896 1.003 13567721
0.1428339 -0.18463896 1.003 13219011
0.14544669 -0.18463896 1.003 14866898
0.099286981 -0.18202612 1.003 9980632
0.1428339 -0.18202612 1.003 13261270
0.14544669 -0.1820261 1.003 14449375
0.14805952 -0.18115516 1.003 16711147
0.099286981 -0.17854236 1.003 10897114
0.14573701 -0.17883268 1.003 13517537
0.14805952 -0.17854236 1.003 16711149
0.097545102 -0.1750586 1.003 11625698
0.14893046 -0.17418766 1.003 16645621
0.097545102 -0.1724458 1.003 9471179
0.1498014 -0.1724458 1.003 16645886
0.095803216 -0.16983299 1.003 13567721
0.097545102 -0.16983299 1.003 13567721
0.1498014 -0.17070392 1.003 16711422
0.095803216 -0.16634923 1.003 11225814
0.097545102 -0.16634923 1.003 13567721
0.1498014 -0.16634923 1.003 16579582
0.095803216 -0.16373642 1.003 8625863
0.097545102 -0.16373642 1.003 13567721
0.1498014 -0.16373642 1.003 13567721
0.095803216 -0.1611236 1.003 12869604
0.097545102 -0.16199456 1.003 9410775
0.1498014 -0.1611236 1.003 14580719
0.092319451 -0.1567689 1.003 12691146
0.094641969 -0.15793018 1.003 12877033
0.15154327 -0.15763986 1.003 15106795
0.092319451 -0.15415607 1.003 12080590
0.094061337 -0.15415607 1.003 13567721
0.15154327 -0.15415607 1.003 16711406
0.094061337 -0.15154324 1.003 13567721
0.15154327 -0.15154324 1.003 16580332
0.15328513 -0.15154324 1.003 16514814
0.092319451 -0.14893046 1.003 13567721
0.094061337 -0.1498014 1.003 8555725
0.15154327 -0.14893046 1.003 16380910
0.15328513 -0.14893046 1.003 16448766
0.092319451 -0.14544669 1.003 13567721
0.094061337 -0.14544669 1.003 12935384
0.15154327 -0.14544669 1.003 15588073
0.15415607 -0.14544669 1.003 16382968
0.094061337 -0.14196295 1.003 13567721
0.15444639 -0.14225328 1.003 16317942
0.083610065 -0.13935015 1.003 16382718
0.085351959 -0.13935015 1.003 16120046
0.087964781 -0.13935015 1.003 12565205
0.091448531 -0.13935015 1.003 12624310
0.15502702 -0.13935015 1.003 16711403
0.088835724 -0.13760825 1.003 12825791
0.091448531 -0.13673732 1.003 13642713
0.088835724 -0.13325357 1.003 12934359
0.091158226 -0.13354389 1.003 13387222
0.088835724 -0.13064076 1.003 8553690
0.090577602 -0.13064076 1.003 8883397
0.088835724 -0.12889886 1.003 13567721
0.090577602 -0.12802793 1.003 13567721
0.088835724 -0.12367325 1.003 13567721
0.090577602 -0.1254151 1.003 6848455
0.083610065 -0.11670575 1.003 13567721
0.085351959 -0.1158348 1.003 13567721
0.087964781 -0.11496385 1.003 13567721
0.090577602 -0.113222 1.003 13567721
0.092595585 -0.19217956 1.006 12631271
0.094342679 -0.19217956 1.006 9215205
0.096089773 -0.19217956 1.006 5797864
0.1420964 -0.19276193 1.006 13650660
0.14500819 -0.19217956 1.006 13286600
0.096963316 -0.19043244 1.006 9061860
0.14500819 -0.19043244 1.006 13567721
0.096963316 -0.18781182 1.006 9323227
0.14588174 -0.18781182 1.006 14066393
0.096963316 -0.18431765 1.006 9453003
0.097836867 -0.181697 1.006 13567721
0.097836867 -0.17907637 1.006 10371024
0.094342679 -0.17470866 1.006 13567721
0.096089773 -0.17470866 1.006 13567721
0.092013232 -0.17179689 1.006 12469987
0.094342679 -0.17208806 1.006 11752420
0.096089773 -0.17296161 1.006 9536725
0.089101426 -0.16946743 1.006 13955309
0.091722056 -0.16946743 1.006 12301530
0.094342679 -0.16946743 1.006 13567721
0.088519067 -0.16713797 1.006 13519852
0.091722056 -0.16684678 1.006 13567721
0.094342679 -0.16684678 1.006 11880656
0.15199655 -0.16597326 1.006 16710908
0.089101426 -0.16335261 1.006 12830700
0.091722056 -0.16335262 1.006 11290592
0.094342679 -0.16335261 1.006 10827476
0.15199655 -0.16335261 1.006 15106289
0.089101426 -0.16073197 1.006 11383526
0.091722056 -0.16073197 1.006 14441699
0.094342679 -0.16073197 1.006 13567721
0.15199655 -0.16073197 1.006 13567721
0.091722056 -0.15898491 1.006 13355478
0.092595585 -0.15199652 1.006 9083858
0.09084852 -0.14850235 1.006 10926029
0.083860151 -0.14500819 1.006 13567721
0.085607246 -0.14500819 1.006 16711413
0.088519067 -0.14559057 1.006 13567721
0.09084852 -0.14588174 1.006 13567721
0.083860151 -0.14238757 1.006 13567721
0.085607246 -0.14238757 1.006 16514805
0.088227883 -0.14238757 1.006 12276960
0.091722056 -0.14238757 1.006 12278743
0.082695447 -0.13860223 1.006 14571759
0.085607246 -0.13801984 1.006 15725544
0.08735434 -0.13801984 1.006 13567721
0.088227883 -0.13627279 1.006 13567721
0.08735434 -0.13452567 1.006 13567721
0.08735434 -0.1310315 1.006 10920175
0.089101426 -0.12753734 1.006 13567721
0.088227883 -0.1249167 1.006 13567721
0.088227883 -0.11356065 1.006 13567721
0.089278571 -0.18993577 1.008 14543589
0.091904402 -0.18993577 1.008 13567721
0.09453024 -0.18993577 1.008 13567721
0.091904402 -0.18730992 1.008 12343255
0.09453024 -0.18730992 1.008 6454465
0.091612637 -0.18497586 1.0080001 13567721
0.09453024 -0.1846841 1.008 10500525
0.096280806 -0.1838088 1.008 13567721
0.09102913 -0.18205822 1.008 12102849
0.09453024 -0.18118295 1.008 10435006
0.096280806 -0.18118295 1.008 9714119
0.09453024 -0.17855711 1.008 7304907
0.096280806 -0.17855711 1.008 6457034
0.088403285 -0.17593127 1.008 14253295
0.091904402 -0.17593127 1.008 13053672
0.09453024 -0.17680657 1.008 8489442
0.096280806 -0.17680657 1.008 13567721
0.085777439 -0.17155488 1.008 13567721
0.088403285 -0.17155488 1.008 13567721
0.09102913 -0.17330545 1.008 12296655
0.084902152 -0.16630322 1.008 15106803
0.087528005 -0.16630322 1.008 13567721
0.084902152 -0.16367736 1.008 14304494
0.087528005 -0.16367736 1.008 14254579
0.084902152 -0.16017625 1.008 14304494
0.087528005 -0.16017625 1.008 13793775
0.089278571 -0.15404929 1.008 13567721
0.09102913 -0.15404929 1.008 13567721
0.09102913 -0.15142342 1.008 12081627
0.085777439 -0.14704704 1.008 16711413
0.088403285 -0.14792231 1.008 13567721
0.082276329 -0.13654371 1.008 16711165
0.084902152 -0.13654371 1.008 14448874
0.082276329 -0.13391787 1.008 16710908
0.084902152 -0.13391785 1.008 14041838
0.087528005 -0.13304259 1.008 13567721
0.082276329 -0.13041671 1.008 16711418
0.084902152 -0.13041671 1.008 13450476
0.087528005 -0.12954141 1.008 13567721
0.082276329 -0.1269156 1.008 16711417
0.084902152 -0.12691559 1.008 13567721
0.087528005 -0.1269156 1.008 11224556
0.082276329 -0.12428977 1.008 16711417
0.084902152 -0.12428977 1.008 13291754
0.086032726 -0.18435585 1.011 15921140
0.088666387 -0.18435585 1.011 14514416
0.0930558 -0.18435585 1.011 13567721
0.086032726 -0.18172219 1.011 16447479
0.088666387 -0.18172219 1.011 13567721
0.091300055 -0.18084432 1.011 11972549
0.0930558 -0.18172219 1.011 13567721
0.088666387 -0.17908852 1.011 14580713
0.091300055 -0.17908852 1.011 11907798
0.0930558 -0.17908852 1.011 8157393
0.089544274 -0.17382126 1.011 14213350
0.085154839 -0.16943184 1.011 15106803
0.0877885 -0.17030972 1.011 13567721
0.082521208 -0.15977509 1.011 16711422
0.082521208 -0.15714142 1.011 15106803
0.085154839 -0.15714142 1.011 15106803
0.0877885 -0.15626352 1.011 14544892
0.082521208 -0.15450777 1.011 16711422
0.085154839 -0.15450777 1.011 15106803
0.0877885 -0.15450777 1.011 13567721
0.082521208 -0.15187411 1.011 16711422
0.085154839 -0.15187411 1.011 15106801
0.088666387 -0.15187411 1.011 13567721
0.085154839 -0.14924043 1.011 13567721
0.0877885 -0.14924043 1.011 13818862
0.14792232 -0.19370782 1.0140001 13154248
0.086288013 -0.17433703 1.0140001 16711422
0.088049002 -0.17433703 1.0140001 13567721
0.081592083 -0.12385558 1.0140002 14571760
