# .PCD v0.7 - Point Cloud Data file format
VERSION 0.7
FIELDS x y z rgba
SIZE 4 4 4 4
TYPE F F F U
COUNT 1 1 1 1
WIDTH 770
HEIGHT 1
VIEWPOINT 0 0 0 1 0 0 0
POINTS 770
DATA ascii
-0.091714248 -0.13294357 0.96900004 15000540
-0.088068113 -0.13350452 0.96900004 15252900
-0.094238453 -0.13041934 0.96900004 14934486
-0.091714248 -0.13041934 0.96900004 14934493
-0.061423291 -0.11443243 0.96900004 11490373
-0.058899052 -0.11443243 0.96900004 7288674
-0.06450849 -0.11218868 0.96900004 10507087
-0.061423291 -0.1119082 0.96900004 9389906
-0.058057647 -0.1119082 0.96900004 11686982
-0.055533376 -0.1119082 0.96900004 7223651
-0.053009138 -0.1119082 0.96900004 11688009
-0.050484899 -0.1119082 0.96900004 7093349
-0.064788967 -0.10938397 0.96900004 7685210
-0.061423291 -0.10938397 0.96900004 7157346
-0.058057651 -0.10938397 0.96900004 7953719
-0.055533376 -0.10938397 0.96900004 9138776
-0.053009138 -0.10938397 0.96900004 8747142
-0.049643498 -0.10938397 0.96900004 8151924
-0.06450849 -0.10657924 0.96900004 13263683
-0.061423294 -0.10685971 0.96900004 11489860
-0.058057651 -0.10685971 0.96900004 11755841
-0.055533376 -0.10685971 0.96900004 11245948
-0.053009138 -0.10685971 0.96900004 16020271
-0.049643498 -0.10685971 0.96900004 13140568
-0.047119226 -0.10685971 0.96900004 13143152
-0.064788967 -0.10349406 0.96900004 13853242
-0.061423294 -0.10349406 0.96900004 9387857
-0.058057647 -0.10349406 0.96900004 9916990
-0.055533376 -0.10349406 0.96900004 10586682
-0.053009138 -0.10349406 0.96900004 13602124
-0.049643498 -0.10349406 0.96900004 12489817
-0.046558291 -0.10321359 0.96900004 12947317
-0.064788967 -0.10012837 0.96900004 11622730
-0.061423291 -0.10012837 0.96900004 9126229
-0.058057647 -0.10012837 0.96900004 9059648
-0.055533376 -0.10012837 0.96900004 6954560
-0.053009138 -0.10012837 0.96900004 11621682
-0.049643498 -0.10012837 0.96900004 10774074
-0.047119226 -0.10012837 0.96900004 9339528
-0.063947529 -0.097604148 0.96900004 7090538
-0.061423291 -0.097604148 0.96900004 6631271
-0.058057651 -0.097604148 0.96900004 6433625
-0.055533376 -0.097604148 0.96900004 6824534
-0.053009138 -0.097604148 0.96900004 6824017
-0.049643498 -0.097604148 0.96900004 7484746
-0.060581855 -0.095921293 0.96900004 16020271
-0.057777181 -0.095360361 0.96900004 16020271
-0.055533376 -0.095079891 0.96900004 6828641
-0.053009138 -0.095079891 0.96900004 16020271
-0.050484899 -0.095079891 0.96900004 7349604
-0.057216246 -0.092555635 0.96900004 16020271
-0.055533376 -0.092555635 0.96900004 6826340
-0.053850573 -0.092555635 0.96900004 6763364
-0.050484899 -0.092555635 0.96900004 16020271
-0.057511482 -0.15900224 0.97400004 16020271
-0.057511482 -0.15731077 0.97400004 8993093
-0.055819929 -0.15731077 0.97400004 10448216
-0.060894459 -0.15392774 0.97400004 7746659
-0.058357224 -0.15477347 0.97400004 11752002
-0.055256099 -0.15449157 0.9740001 14317373
-0.064841352 -0.15110852 0.9740001 13327679
-0.061458312 -0.15110852 0.9740001 13197374
-0.058298178 -0.15123501 0.97300005 12080446
-0.054974183 -0.15139043 0.97400004 12220493
-0.070197798 -0.14716165 0.97400004 12350796
-0.067660533 -0.14885318 0.97400004 8212595
-0.065123275 -0.14800742 0.97400004 11817034
-0.061740234 -0.14800742 0.97400004 9584974
-0.058327701 -0.14793101 0.97350007 9979977
-0.054974183 -0.14800742 0.97400004 12222802
-0.052436888 -0.14716165 0.97400004 11115109
-0.070197798 -0.14547016 0.97400004 12350797
-0.067521602 -0.14601545 0.97200006 8147823
-0.064989552 -0.14517145 0.97200006 16020271
-0.061613455 -0.14517145 0.97200006 11949128
-0.058357224 -0.14547016 0.97400004 11883844
-0.054974183 -0.14547016 0.97400004 11108943
-0.052436888 -0.14547016 0.97400004 11243588
-0.050745402 -0.14547016 0.97400004 16020271
-0.070197798 -0.14293288 0.97400004 14251070
-0.067521602 -0.14263937 0.97200006 8543597
-0.064989552 -0.14263938 0.97200006 11882830
-0.061644718 -0.14271319 0.97250003 9980506
-0.05829731 -0.14278525 0.97300005 10112595
-0.054974183 -0.14293288 0.97400004 12280124
-0.052436888 -0.14293288 0.97400004 4866090
-0.050745402 -0.14293288 0.97400004 16020271
-0.070197798 -0.13954985 0.97400004 12482127
-0.067521602 -0.1392633 0.97200006 8479336
-0.064989552 -0.1392633 0.97200006 12015436
-0.061613455 -0.1392633 0.97200006 9916763
-0.058326833 -0.13947865 0.97350001 9589338
-0.054974183 -0.13954985 0.97400004 8867153
-0.052436888 -0.13954985 0.97400004 4402491
-0.050745402 -0.13954985 0.97400004 10573356
-0.086090013 -0.13504322 0.97200006 15066333
-0.072735064 -0.13616684 0.97400004 12284744
-0.070197798 -0.13616684 0.97400004 12416076
-0.067591071 -0.13602616 0.97300005 7760998
-0.064989552 -0.13588724 0.97200006 11361107
-0.061613455 -0.13588724 0.97200006 8414564
-0.058266919 -0.13595757 0.97250009 8874091
-0.054974183 -0.13616684 0.97400004 7559001
-0.052436888 -0.13616684 0.97400004 4666173
-0.050745402 -0.13616684 0.97400004 11030818
-0.085246012 -0.13335516 0.97200006 15066329
-0.082713984 -0.13335516 0.97200006 15394782
-0.070197798 -0.13362956 0.97400004 8878462
-0.067660533 -0.13362956 0.97400004 7631215
-0.064989552 -0.13335516 0.97200006 6116735
-0.061613455 -0.13335516 0.97200006 6125442
-0.058237396 -0.13335516 0.97200006 6848404
-0.054974183 -0.13362956 0.97400004 5138837
-0.052436888 -0.13362956 0.97400004 16020271
-0.050745402 -0.13362956 0.97400004 5778991
-0.088622108 -0.13166714 0.97200006 14933980
-0.085421413 -0.13193806 0.97400004 15444356
-0.069352023 -0.13109228 0.97400004 16020271
-0.067660533 -0.13109228 0.97400004 7762280
-0.065123275 -0.13109228 0.97400004 16020271
-0.061645582 -0.13089085 0.97250009 11106138
-0.058237396 -0.13082311 0.97200006 11696734
-0.0548613 -0.13082311 0.97200006 11171422
-0.052436888 -0.13109228 0.97400004 6246765
-0.04989966 -0.13109228 0.97400004 16020271
-0.065123275 -0.12770927 0.97400004 11561299
-0.061677709 -0.12757815 0.97300005 7757161
-0.058237392 -0.12744704 0.97200006 7694189
-0.054889955 -0.12751216 0.97250009 8807017
-0.05238305 -0.12757728 0.97300005 8012906
-0.049873605 -0.12764327 0.97350001 11556932
-0.067660533 -0.12348048 0.97400004 16020271
-0.065123275 -0.12432623 0.97400004 11691087
-0.061708972 -0.12426284 0.97350001 8146005
-0.058326833 -0.12426283 0.97350001 8541018
-0.054974183 -0.12432623 0.97400004 9131094
-0.052436888 -0.12432622 0.97400004 8016222
-0.04989966 -0.12432623 0.97400004 11884360
-0.069352023 -0.1209432 0.97400004 12744530
-0.067660533 -0.1209432 0.97400004 12417363
-0.065123275 -0.12178895 0.97400004 8148583
-0.061677713 -0.12166391 0.97300005 7614811
-0.058296442 -0.12166391 0.97300005 8012380
-0.054916874 -0.12166391 0.97300005 8476250
-0.052436888 -0.1209432 0.97400004 8675678
-0.050181575 -0.12122512 0.9740001 11299923
-0.069352023 -0.11840592 0.97400004 8747123
-0.067521602 -0.11816279 0.97200006 8616055
-0.064989552 -0.11900682 0.97200006 11953738
-0.061613455 -0.11900682 0.97200006 11358791
-0.058237396 -0.11900682 0.97200006 11753285
-0.0548613 -0.11900682 0.97200006 12015940
-0.052329216 -0.11816279 0.97200006 8475485
-0.04989966 -0.11840592 0.97400004 12741708
-0.081192628 -0.11502289 0.97400004 12298347
-0.072735064 -0.11502289 0.97400004 8948858
-0.069868408 -0.11550801 0.97333336 13662790
-0.067521602 -0.11563075 0.97200006 12286038
-0.064989552 -0.11563075 0.97200006 16020271
-0.061613455 -0.11647478 0.97200006 6894428
-0.057956062 -0.11591209 0.97200006 10243663
-0.0548613 -0.11563075 0.97200006 9783636
-0.052329216 -0.11563075 0.97200006 8012637
-0.049873605 -0.11580961 0.97350007 14117945
-0.047362361 -0.11502289 0.97400004 8211815
-0.081192628 -0.11248564 0.97400004 6175535
-0.079501137 -0.11248564 0.97400004 12345664
-0.076963842 -0.11248563 0.97400004 14580029
-0.073506162 -0.11237015 0.97300005 14120251
-0.070053652 -0.11225466 0.97200006 12350801
-0.067521602 -0.11225466 0.97200006 8353913
-0.065833591 -0.11141063 0.97200006 16020271
-0.048953187 -0.11225466 0.97200006 11688258
-0.046444546 -0.11231284 0.97250009 13919798
-0.043979324 -0.11163987 0.97400004 9463407
-0.081192628 -0.10910261 0.97400004 5527136
-0.079501137 -0.10910261 0.97400004 10577741
-0.077809587 -0.10994838 0.97400004 16020271
-0.073580839 -0.10910262 0.97400004 12285264
-0.070053652 -0.10887858 0.97200006 10450270
-0.067521602 -0.10887858 0.97200006 8156029
-0.065833591 -0.10803456 0.97200006 16020271
-0.046139769 -0.10915993 0.97200006 10509392
-0.043088429 -0.10899059 0.97300005 11566438
-0.040596347 -0.10825685 0.97400004 16020271
-0.037213307 -0.10910261 0.97400004 13991775
-0.081192628 -0.10656536 0.97400004 5920090
-0.079501137 -0.10656536 0.97400004 5920601
-0.073580839 -0.10656536 0.97400004 9209465
-0.070053652 -0.10634654 0.97200006 8815498
-0.067521602 -0.10634654 0.97200006 8222592
-0.045577094 -0.10634654 0.97200006 9806242
-0.043088429 -0.10645595 0.97300005 10786961
-0.040596347 -0.10656536 0.97400004 11049102
-0.037213307 -0.10656536 0.97400004 10920846
-0.081192628 -0.10402808 0.97400004 5919825
-0.079501137 -0.10402808 0.97400004 11100994
-0.077809587 -0.10318234 0.97400004 7365723
-0.073506162 -0.10392128 0.97300005 14119741
-0.070053652 -0.10381448 0.97200006 12482391
-0.067521602 -0.10381448 0.97200006 8157050
-0.045577094 -0.10465848 0.97200006 16020271
-0.043066718 -0.10386744 0.97250009 13468250
-0.040554665 -0.10392042 0.97300005 10849428
-0.038059048 -0.10487383 0.97400004 16020271
-0.081192628 -0.1014908 0.97400004 6182736
-0.079501137 -0.1014908 0.97400004 16020271
-0.073580839 -0.10064504 0.97400004 13791552
-0.070053652 -0.10043837 0.97200006 9858401
-0.067521602 -0.10043837 0.97200006 7695975
-0.045577094 -0.10043837 0.97200006 12811095
-0.043355294 -0.10078919 0.97266674 9135217
-0.040596347 -0.1014908 0.97400004 9990260
-0.073298916 -0.09754394 0.9740001 10842971
-0.070053652 -0.097062297 0.97200006 12022604
-0.067521602 -0.09706229 0.97200006 7829876
-0.065270901 -0.096780948 0.97200006 13133891
-0.062457494 -0.096218266 0.97200006 6762347
-0.048953187 -0.096218266 0.97200006 16020271
-0.04644455 -0.097111784 0.97250009 9857864
-0.069352023 -0.093878992 0.97400004 12154194
-0.067660533 -0.093878992 0.97400004 8223611
-0.065361202 -0.094096079 0.97333336 10248287
-0.061613455 -0.094530247 0.97200006 6762862
-0.059081402 -0.094530247 0.97200006 16020271
-0.048953187 -0.094530247 0.97200006 16020271
-0.046766113 -0.094096079 0.97333336 11895130
-0.067660533 -0.091341734 0.97400004 9205905
-0.064753354 -0.091779374 0.97266674 11169136
-0.061613455 -0.091998175 0.97200006 11294550
-0.058518734 -0.091716848 0.97200006 10572891
-0.0548613 -0.091154173 0.97200006 11427411
-0.052329216 -0.091998182 0.97200006 16020271
-0.049549438 -0.091779374 0.97266674 16020271
-0.067660533 -0.089650199 0.97400004 16020271
-0.064841352 -0.089086376 0.9740001 13989451
-0.061645582 -0.088667259 0.97250009 12347739
-0.058237396 -0.088622101 0.97200006 12424055
-0.0548613 -0.088622108 0.97200006 13796954
-0.05238305 -0.088712409 0.97300005 9068662
-0.050693303 -0.088712409 0.97300005 12347478
-0.0642775 -0.08457569 0.97400004 8999272
-0.061677709 -0.085333727 0.97300005 12875077
-0.058266915 -0.085289441 0.97250003 11629676
-0.054945529 -0.085377142 0.97350001 11430999
-0.052436888 -0.085421428 0.97400004 9062241
-0.050745402 -0.085421428 0.97400004 12742740
-0.064841352 -0.081756495 0.9740001 13589826
-0.061645582 -0.081912503 0.97250009 12404805
-0.05829731 -0.081955045 0.97300005 10628174
-0.054974183 -0.08203841 0.97400004 10627661
-0.052436888 -0.081192665 0.97400004 8788563
-0.050745402 -0.08203841 0.97400004 12404545
-0.069352023 -0.079501122 0.97400004 16020271
-0.067660533 -0.079501122 0.97400004 8660316
-0.065057278 -0.079419501 0.97300005 12405062
-0.061613455 -0.07933788 0.97200006 8920158
-0.058237396 -0.07933788 0.97200006 8919130
-0.054916874 -0.079419501 0.97300005 8853085
-0.050745402 -0.079501122 0.97400004 8983876
-0.067660533 -0.077809632 0.97400004 16020271
-0.065123275 -0.076963864 0.97400004 16020271
-0.061645582 -0.076844908 0.97250009 12534343
-0.058237396 -0.076805837 0.97200006 12533831
-0.054916874 -0.076884851 0.97300005 12599112
-0.052436888 -0.076963864 0.97400004 9309544
-0.050745402 -0.076963864 0.97400004 16020271
-0.0731484 -0.073711067 0.97200006 12804664
-0.070089258 -0.073467068 0.97250009 12142403
-0.067660533 -0.073580816 0.97400004 9309796
-0.065405205 -0.073862731 0.9740001 13718082
-0.061373793 -0.073760852 0.97266674 11676758
-0.058357224 -0.074426562 0.97400004 10028148
-0.055217892 -0.073811792 0.97333336 10689661
-0.070053652 -0.070053652 0.97200006 12603971
-0.067521602 -0.070053652 0.97200006 13456973
-0.065405205 -0.070479713 0.9740001 14373701
-0.061740234 -0.071043544 0.97400004 16020271
-0.061082017 -0.16288543 0.97700006 7944540
-0.058536969 -0.16288543 0.97700006 7746643
-0.055143509 -0.16288543 0.97700006 8013665
-0.064475477 -0.159492 0.97700006 8072544
-0.061082017 -0.16034037 0.97700006 16020271
-0.058819752 -0.16062316 0.97700012 10437956
-0.055143505 -0.16034037 0.97700006 14510903
-0.067020588 -0.15609854 0.97700006 12348232
-0.064475477 -0.15694693 0.97700006 8138085
-0.061647605 -0.15666413 0.97700012 13262654
-0.059385318 -0.1577953 0.97700006 7614801
-0.05429516 -0.15694693 0.97700006 13467213
-0.052598398 -0.15694693 0.97700006 13730888
-0.071262397 -0.15440185 0.97700006 8811620
-0.067020588 -0.15440185 0.97700006 12282184
-0.064475477 -0.15440185 0.97700006 8074338
-0.062778778 -0.15440185 0.97700006 8009570
-0.052598398 -0.15440185 0.97700006 11442544
-0.0509017 -0.15440185 0.97700006 11114617
-0.072959095 -0.15100835 0.97700006 8552562
-0.070414014 -0.15185674 0.97700006 12285257
-0.067303374 -0.15213953 0.97700012 10903899
-0.062778778 -0.1527051 0.97700006 16020271
-0.052598398 -0.15185672 0.97700006 11440990
-0.050053351 -0.15185672 0.97700006 16020271
-0.073524684 -0.14818051 0.97700012 16020271
-0.070414014 -0.14931166 0.97700006 12350798
-0.052598398 -0.14931166 0.97700006 11046495
-0.050053351 -0.14846329 0.97700006 13402179
-0.047508243 -0.14761493 0.97700006 10781778
-0.073807478 -0.14506984 0.97700006 12219471
-0.049205005 -0.14506984 0.97700006 13336123
-0.047508243 -0.14506984 0.97700006 13531712
-0.072959095 -0.14252478 0.97700006 8878957
-0.049205005 -0.14252478 0.97700006 16020271
-0.047508243 -0.14252478 0.97700006 7487824
-0.073807478 -0.13997968 0.97700006 14186043
-0.049205005 -0.13997968 0.97700006 11164981
-0.047508243 -0.13997968 0.97700006 16020271
-0.074655853 -0.13658623 0.97700006 16020271
-0.049205005 -0.13658623 0.97700006 11755807
-0.047508243 -0.13658623 0.97700006 8011541
-0.072959095 -0.13319279 0.97700006 12220753
-0.071262397 -0.13234444 0.97700006 16020271
-0.049205005 -0.13404115 0.97700006 6437429
-0.046659894 -0.13319279 0.97700006 8996403
-0.07804925 -0.13064769 0.97700006 9932714
-0.073807478 -0.13064769 0.97700006 11759167
-0.071262397 -0.13064769 0.97700006 8352620
-0.046659894 -0.13064769 0.97700006 6239562
-0.072959095 -0.128951 0.97700006 16020271
-0.070131227 -0.12838542 0.97700012 10711383
-0.067868941 -0.12810263 0.97700006 11956042
-0.046659894 -0.12810263 0.97700006 11424830
-0.069565631 -0.12470916 0.97700006 12153937
-0.067868941 -0.12555751 0.97700006 8288884
-0.046659894 -0.12470916 0.97700006 9720668
-0.072959095 -0.12046736 0.97700006 16020271
-0.071262397 -0.12046736 0.97700006 8484718
-0.049205005 -0.12046736 0.97700006 16020271
-0.046942677 -0.1215985 0.97700012 9267567
-0.07804925 -0.11877062 0.97700006 13558489
-0.076352552 -0.11877062 0.97700006 11715266
-0.073807478 -0.11792228 0.97700006 14448206
-0.071262397 -0.11792228 0.97700006 8486513
-0.046659894 -0.11792227 0.97700006 10774631
-0.078897633 -0.11537718 0.97700006 12763804
-0.076352552 -0.11537718 0.97700006 12168854
-0.074655853 -0.11537718 0.97700006 10523007
-0.045811545 -0.11537718 0.97700006 8211056
-0.042983651 -0.11311489 0.97700012 16020271
-0.040721387 -0.11198373 0.97700006 10718610
-0.037327927 -0.11283211 0.97700006 12294274
-0.07804925 -0.10859029 0.97700006 16020271
-0.076352552 -0.10943867 0.97700006 8683121
-0.03959021 -0.10972147 0.97700012 14253650
-0.07804925 -0.10604522 0.97700006 11692099
-0.076352552 -0.10604522 0.97700006 9010532
-0.076352552 -0.10350015 0.97700006 8616802
-0.082573883 -0.10067224 0.97700012 9133123
-0.078897633 -0.10095502 0.97700006 11035972
-0.076352552 -0.1018034 0.97700006 8158312
-0.042418085 -0.10010666 0.97700006 16020271
-0.039873004 -0.10095502 0.97700006 9860712
-0.07804925 -0.09756159 0.97700006 11560775
-0.076352552 -0.09756159 0.97700006 8615783
-0.074655853 -0.096713215 0.97700006 16020271
-0.043266434 -0.098409966 0.97700006 7824477
-0.040721387 -0.098409966 0.97700006 16020271
-0.073807478 -0.094168141 0.97700006 12153424
-0.071262397 -0.094168141 0.97700006 8418677
-0.045811545 -0.093319766 0.97700006 16020271
-0.040721387 -0.095016517 0.97700006 8353151
-0.07804925 -0.091623075 0.97700006 7033429
-0.076352552 -0.091623075 0.97700006 8483935
-0.073807478 -0.091623075 0.97700006 8749423
-0.070414014 -0.091623075 0.97700006 8944775
-0.046659894 -0.091623075 0.97700006 11377289
-0.040721387 -0.091623075 0.97700006 10786221
-0.07804925 -0.089926325 0.97700006 16020271
-0.076352552 -0.089926325 0.97700006 7564884
-0.073807478 -0.089926325 0.97700006 16020271
-0.070414014 -0.089926325 0.97700006 12680029
-0.067020588 -0.088229626 0.97700006 16020271
-0.049205005 -0.089077979 0.97700006 12674902
-0.067020588 -0.084836185 0.97700006 12216140
-0.064475477 -0.086532876 0.97700006 9529448
-0.049205005 -0.08568453 0.97700006 12874837
-0.076352552 -0.081442744 0.97700006 5722453
-0.073807478 -0.081442744 0.97700006 16020271
-0.070414014 -0.082291096 0.97700006 10046808
-0.067303374 -0.082573883 0.97700012 11094355
-0.052598398 -0.083139442 0.97700006 8721237
-0.049205005 -0.082291096 0.97700006 12471363
-0.076352552 -0.079746 0.97700006 5853776
-0.073807478 -0.079746 0.97700006 11296319
-0.071262397 -0.079746 0.97700006 7943511
-0.052598398 -0.079746 0.97700006 8853073
-0.049205005 -0.078897648 0.97700006 12534848
-0.046942677 -0.078614861 0.97700012 11351632
-0.070414014 -0.076352552 0.97700006 12011585
-0.067868941 -0.076352552 0.97700006 8851547
-0.049205005 -0.076352552 0.97700006 16020271
-0.046659894 -0.076352552 0.97700006 9834344
-0.044114783 -0.076352552 0.97700006 9901672
-0.064475477 -0.07295911 0.97700006 16020271
-0.062778778 -0.07295911 0.97700006 10623603
-0.058536969 -0.07295911 0.97700006 13653592
-0.05429516 -0.07295911 0.97700006 16020271
-0.052598398 -0.073807456 0.97700006 11020673
-0.050053351 -0.073807456 0.97700006 13320023
-0.047508243 -0.073807456 0.97700006 11217290
-0.064475477 -0.069565661 0.97700006 11943540
-0.061930396 -0.069565661 0.97700006 16020271
-0.058536969 -0.070414007 0.97700006 15099206
-0.055143509 -0.070414007 0.97700006 13786237
-0.052598398 -0.070414007 0.97700006 13195423
-0.050053351 -0.070414007 0.97700006 14441827
-0.047508243 -0.070414007 0.97700006 14705761
-0.069565631 -0.067868926 0.97700006 10370395
-0.067020588 -0.067868926 0.97700006 12206186
-0.064475477 -0.067868926 0.97700006 12797576
-0.061930396 -0.067868926 0.97700006 12863636
-0.058536969 -0.067868926 0.97700006 13188510
-0.055143509 -0.067868926 0.97700006 14706793
-0.052598398 -0.067868926 0.97700006 14181542
-0.0509017 -0.067868926 0.97700006 14182311
-0.073183127 -0.18040496 0.98000002 10587009
-0.070630223 -0.18040496 0.98000002 8948107
-0.06722638 -0.18040496 0.98000002 7679830
-0.064673461 -0.18040496 0.98000002 6894940
-0.061836906 -0.18097226 0.98000002 9525851
-0.058716714 -0.18125591 0.98000002 8416368
-0.055596486 -0.18153958 0.98000002 6651541
-0.070630223 -0.17785203 0.98000002 16020271
-0.06722638 -0.17785203 0.98000002 11881028
-0.064673461 -0.17785203 0.98000002 6763882
-0.062120564 -0.17785203 0.98000002 13331522
-0.058716714 -0.17785202 0.98000002 7300984
-0.056163792 -0.17870301 0.98000002 6520475
-0.06977924 -0.17529914 0.98000002 16020271
-0.06722638 -0.17529914 0.98000002 7609444
-0.064673461 -0.17529914 0.98000002 6829165
-0.062120564 -0.17529914 0.98000002 5984375
-0.058716714 -0.17529914 0.98000002 5072266
-0.066942737 -0.17302988 0.98000002 13392449
-0.064673461 -0.17274623 0.98000002 7023974
-0.062120564 -0.17274623 0.98000002 16020271
-0.058716714 -0.17274623 0.98000002 10776155
-0.06722638 -0.16934237 0.98000002 9782372
-0.064673461 -0.16934237 0.98000002 7216969
-0.062120564 -0.16934237 0.98000002 11425607
-0.058716714 -0.16934237 0.98000002 8216933
-0.055029184 -0.16905873 0.98000002 12414536
-0.076586999 -0.16508755 0.98000002 6906509
-0.073750451 -0.16565487 0.98000002 13333569
-0.070913889 -0.16565485 0.98000002 11502434
-0.06722638 -0.1659385 0.98000002 11949906
-0.064673461 -0.1659385 0.98000002 7610448
-0.062120561 -0.1659385 0.98000002 11883331
-0.058716714 -0.16593851 0.98000002 9456980
-0.055312835 -0.16593851 0.98000002 7755620
-0.051908955 -0.16508755 0.98000002 11494999
-0.07403411 -0.1633856 0.98000002 9929074
-0.070630223 -0.1633856 0.98000002 10327168
-0.06722638 -0.1633856 0.98000002 8272495
-0.064673461 -0.1633856 0.98000002 7809368
-0.062971547 -0.1633856 0.98000002 8008794
-0.051908955 -0.1633856 0.98000002 12741196
-0.049356092 -0.1633856 0.98000002 8942195
-0.076586999 -0.15998173 0.98000002 10461109
-0.07403411 -0.1608327 0.98000002 14447687
-0.070630223 -0.1608327 0.98000002 12745818
-0.06722638 -0.1608327 0.98000002 12346701
-0.064673461 -0.16168369 0.98000002 7940954
-0.062971547 -0.1608327 0.98000002 16020271
-0.051908955 -0.1608327 0.98000002 13532994
-0.049356092 -0.1608327 0.98000002 10256987
-0.076586999 -0.15742885 0.98000002 16020271
-0.07403411 -0.15742885 0.98000002 14251074
-0.070630223 -0.15742885 0.98000002 10778720
-0.06722638 -0.15827982 0.98000002 8405859
-0.062971547 -0.15827982 0.98000002 8075361
-0.051058002 -0.15742885 0.98000002 13533763
-0.049356092 -0.15742885 0.98000002 13334854
-0.047654118 -0.15657787 0.98000002 16020271
-0.039144453 -0.15657787 0.98000002 14405018
-0.07403411 -0.15402497 0.98000002 12481627
-0.06977924 -0.15487595 0.98000002 8942178
-0.049356092 -0.15487595 0.98000002 10850666
-0.046803169 -0.15402497 0.98000002 13071428
-0.043399289 -0.15402497 0.98000002 14446903
-0.039711781 -0.15374133 0.98000002 14579005
-0.076586999 -0.15147205 0.98000002 16020271
-0.0748851 -0.15147205 0.98000002 9272448
-0.046803169 -0.15147205 0.98000002 10057801
-0.039144453 -0.15147205 0.98000002 13349244
-0.078288905 -0.14806819 0.98000002 11379887
-0.076586999 -0.14891917 0.98000002 12350305
-0.0748851 -0.14977014 0.98000002 16020271
-0.046519518 -0.14920282 0.98000002 16020271
-0.044250242 -0.14806819 0.98000002 9924646
-0.039144453 -0.14977014 0.98000002 16020271
-0.078288905 -0.14551531 0.98000002 16020271
-0.076586999 -0.14551531 0.98000002 16020271
-0.045952216 -0.14551531 0.98000002 16020271
-0.044250242 -0.14636628 0.98000002 10126136
-0.078288905 -0.14211144 0.98000002 13074286
-0.076586999 -0.14211144 0.98000002 12023901
-0.0748851 -0.14296241 0.98000002 16020271
-0.045952216 -0.14211144 0.98000002 13136958
-0.085096672 -0.13955855 0.98000002 15197403
-0.082543775 -0.13955855 0.98000002 16020271
-0.079139888 -0.13955855 0.98000002 11646142
-0.076586999 -0.13955855 0.98000002 8687240
-0.045952216 -0.13955855 0.98000002 16020271
-0.044250242 -0.13955855 0.98000002 10453067
-0.085096672 -0.13615468 0.98000002 16020271
-0.082543775 -0.13615468 0.98000002 15707271
-0.079139888 -0.13700564 0.98000002 14131839
-0.076586999 -0.13700563 0.98000002 6776714
-0.045952216 -0.13700563 0.98000002 12607531
-0.043682944 -0.13728929 0.98000002 13857579
-0.082260117 -0.13331813 0.98000002 14991014
-0.079139888 -0.13360178 0.98000002 12361622
-0.076586999 -0.13360178 0.98000002 11695447
-0.0748851 -0.13360178 0.98000002 11825226
-0.044250242 -0.13360178 0.98000002 12017945
-0.085947618 -0.13019791 0.98000002 15509892
-0.082260117 -0.13048157 0.98000002 15122598
-0.079423554 -0.12991427 0.98000002 14400150
-0.076586999 -0.13019791 0.98000002 6577026
-0.0748851 -0.12934697 0.98000002 16020271
-0.044250242 -0.13019791 0.98000002 11228218
-0.079139888 -0.127645 0.98000002 15380610
-0.076586999 -0.127645 0.98000002 16020271
-0.07403411 -0.127645 0.98000002 16020271
-0.071481213 -0.127645 0.98000002 7893361
-0.044250242 -0.127645 0.98000002 6762316
-0.07885623 -0.12537575 0.98000002 14400165
-0.076586999 -0.12509209 0.98000002 11434596
-0.07403411 -0.1250921 0.98000002 16020271
-0.071481213 -0.12509209 0.98000002 7959414
-0.044250242 -0.12594305 0.98000002 7024989
-0.078288905 -0.12168823 0.98000002 12638432
-0.076586999 -0.12168823 0.98000002 12815216
-0.074317776 -0.12197189 0.98000002 10775395
-0.071481213 -0.12253918 0.98000002 8615539
-0.045952216 -0.12083728 0.98000002 16020271
-0.044250242 -0.12083728 0.98000002 9069678
-0.079423554 -0.11800072 0.98000002 15188119
-0.076586999 -0.11743341 0.98000002 11914947
-0.043399289 -0.11828437 0.98000002 10511202
-0.040846426 -0.11743341 0.98000002 9921114
-0.03744255 -0.11743341 0.98000002 13090716
-0.043399289 -0.11573146 0.98000002 8408183
-0.039995439 -0.1148805 0.98000002 11629418
-0.03744255 -0.11573146 0.98000002 16020271
-0.039144453 -0.1123276 0.98000002 10063500
-0.039144453 -0.10722182 0.98000002 10985870
-0.039144453 -0.10381796 0.98000002 16020271
-0.03744255 -0.10296698 0.98000002 16020271
-0.078288905 -0.10041405 0.98000002 16020271
-0.076586999 -0.10041405 0.98000002 8420719
-0.039144453 -0.10041405 0.98000002 16020271
-0.03744255 -0.10041405 0.98000002 9797774
-0.082543775 -0.098712139 0.98000002 5590867
-0.079990879 -0.097861156 0.98000002 5723738
-0.043399289 -0.09701018 0.98000002 12482369
-0.039711781 -0.097577505 0.98000002 13463617
-0.03744255 -0.09701018 0.98000002 7758440
-0.078288905 -0.095308281 0.98000002 7168091
-0.076586999 -0.094457299 0.98000002 8419432
-0.043399289 -0.094457306 0.98000002 11964021
-0.039711781 -0.09417364 0.98000002 10581613
-0.03744255 -0.095308281 0.98000002 6448260
-0.046803169 -0.090202458 0.98000002 13402709
-0.043399289 -0.091053441 0.98000002 15040848
-0.039995439 -0.091053441 0.98000002 10462134
-0.078288905 -0.088500544 0.98000002 6049619
-0.076586999 -0.088500544 0.98000002 6709076
-0.07403411 -0.088500544 0.98000002 8943199
-0.070630223 -0.088500544 0.98000002 9866110
-0.046803169 -0.088500544 0.98000002 13665622
-0.044250242 -0.088500544 0.98000002 12496285
-0.076586999 -0.08594764 0.98000002 10838339
-0.07403411 -0.08594764 0.98000002 13657913
-0.070630223 -0.08594764 0.98000002 12152140
-0.06722638 -0.086798593 0.98000002 12675916
-0.046803169 -0.085947648 0.98000002 11431524
-0.043399289 -0.085947648 0.98000002 11893089
-0.040846426 -0.08594764 0.98000002 12023122
-0.076586999 -0.083394729 0.98000002 5722457
-0.07403411 -0.083394729 0.98000002 6966623
-0.046803169 -0.082543775 0.98000002 10630993
-0.043399289 -0.082543775 0.98000002 12671304
-0.040846426 -0.081692822 0.98000002 8538474
-0.07403411 -0.078288957 0.98000002 16020271
-0.070630223 -0.078288957 0.98000002 11946818
-0.045952216 -0.079990864 0.98000002 8854885
-0.043399289 -0.079139911 0.98000002 10958683
-0.040846426 -0.079990864 0.98000002 8864620
-0.07403411 -0.076586999 0.98000002 16020271
-0.045952216 -0.074034095 0.98000002 16020271
-0.062120564 -0.066375412 0.98000002 16020271
-0.059567668 -0.066375412 0.98000002 13262751
-0.081942864 -0.18095723 0.98300004 9737661
-0.079382159 -0.18095723 0.98300004 6842484
-0.075967893 -0.18095723 0.98300004 7626594
-0.054628599 -0.18095723 0.98300004 16020271
-0.052067861 -0.18095723 0.98300004 11762533
-0.049507186 -0.18095723 0.98300004 7899294
-0.085357167 -0.17925006 0.98300004 13620168
-0.082511924 -0.178681 0.98300004 16020271
-0.079382159 -0.17839646 0.98300004 11761501
-0.075967893 -0.17839648 0.98300004 11758920
-0.073407151 -0.17839646 0.98300004 10389887
-0.055197638 -0.17811194 0.98300004 9993334
-0.052067861 -0.17839646 0.98300004 16020271
-0.049507186 -0.17839646 0.98300004 7702947
-0.082511924 -0.17526673 0.98300004 14202521
-0.079382159 -0.17498219 0.98300004 12219995
-0.075967893 -0.17498219 0.98300004 12152903
-0.073407151 -0.17498219 0.98300004 9665385
-0.071130976 -0.17469767 0.98300004 13796430
-0.055482157 -0.17498219 0.98300004 9207681
-0.052067861 -0.17498219 0.98300004 10455433
-0.081942864 -0.17242149 0.98300004 16020271
-0.079382159 -0.17242149 0.98300004 12618093
-0.075967893 -0.17242149 0.98300004 6708254
-0.073407151 -0.17242149 0.98300004 9073224
-0.070846446 -0.17242149 0.98300004 9142150
-0.068285733 -0.17242149 0.98300004 8139629
-0.055482157 -0.17242149 0.98300004 6850456
-0.052067861 -0.17242149 0.98300004 8556194
-0.081942864 -0.16986077 0.98300004 14329994
-0.079382159 -0.16986077 0.98300004 11047317
-0.075967893 -0.16986075 0.98300004 16020271
-0.073407151 -0.16986077 0.98300004 8547430
-0.070846446 -0.16986077 0.98300004 16020271
-0.056335717 -0.17071432 0.98300004 5863307
-0.052067861 -0.16986075 0.98300004 11762272
-0.081942864 -0.16644648 0.98300004 15249037
-0.079382159 -0.16644648 0.98300004 13284270
-0.075967893 -0.16730005 0.98300004 5523568
-0.069992855 -0.16730005 0.98300004 9801344
-0.052067861 -0.16730005 0.98300004 4612234
-0.049507186 -0.16559292 0.98300004 6839180
-0.081942864 -0.1630322 0.98300004 15331557
-0.079382159 -0.1630322 0.98300004 14853511
-0.076821454 -0.1630322 0.98300004 12881525
-0.047800001 -0.1630322 0.98300004 16020271
-0.040971469 -0.16217864 0.98300004 16020271
-0.081942864 -0.16047147 0.98300004 15461349
-0.079382159 -0.16047147 0.98300004 14475997
-0.046946444 -0.16047147 0.98300004 16020271
-0.043532141 -0.16047147 0.98300004 10188128
-0.040971469 -0.16047147 0.98300004 12360566
-0.078528568 -0.15791076 0.98300004 14524547
-0.046661925 -0.1581953 0.98300004 14186048
-0.043532141 -0.15791076 0.98300004 13135422
-0.040971469 -0.15705718 0.98300004 12359512
-0.078528568 -0.15449649 0.98300004 16020271
-0.076821454 -0.15449649 0.98300004 13078386
-0.040971469 -0.15535007 0.98300004 16020271
-0.079097629 -0.15079767 0.98300004 16020271
-0.043532141 -0.15108219 0.98300004 12673337
-0.040971469 -0.15108219 0.98300004 11031891
-0.03755717 -0.15022862 0.98300004 16020271
-0.082796454 -0.14852147 0.98300004 16020271
-0.080235749 -0.14852147 0.98300004 14018000
-0.042678583 -0.14852147 0.98300004 8935481
-0.040117875 -0.14852147 0.98300004 10642517
-0.03755717 -0.14852147 0.98300004 13285231
-0.085357167 -0.14596075 0.98300004 15328736
-0.082796454 -0.14596075 0.98300004 16020271
-0.080235749 -0.14596075 0.98300004 14526080
-0.043247622 -0.14567623 0.98300004 16020271
-0.040402409 -0.14624529 0.98300004 11685186
-0.03755717 -0.14681433 0.98300004 12559727
-0.087064289 -0.14254647 0.98300004 15065818
-0.085357167 -0.14254647 0.98300004 15263452
-0.082796454 -0.14254647 0.98300004 16020271
-0.080235749 -0.14254647 0.98300004 12371911
-0.043532141 -0.14254646 0.98300004 12939581
-0.085357167 -0.1382786 0.98300004 15197404
-0.082796454 -0.1382786 0.98300004 16020271
-0.042678583 -0.13998577 0.98300004 16020271
-0.040402409 -0.13884766 0.98300004 14186555
-0.042678583 -0.1365715 0.98300004 16020271
-0.040117875 -0.1365715 0.98300004 8941136
-0.042678583 -0.13401076 0.98300004 12413999
-0.040402409 -0.13372624 0.98300004 16020271
-0.083650053 -0.12974292 0.98300004 16020271
-0.042678583 -0.13059647 0.98300004 11293748
-0.040117875 -0.13059647 0.98300004 9186616
-0.042678583 -0.12718217 0.98300004 11292730
-0.040402409 -0.12689765 0.98300004 10502716
-0.043532141 -0.12462147 0.98300004 12020559
-0.040117875 -0.12462147 0.98300004 12609342
-0.043247622 -0.12234527 0.98300004 11430484
-0.040117875 -0.12206075 0.98300004 16020271
-0.039833345 -0.11893098 0.98300004 12612182
-0.082796454 -0.097307153 0.98300004 10838337
-0.081942864 -0.095600031 0.98300004 5788502
-0.079666689 -0.094461933 0.98300004 16020271
-0.04704196 -0.18132541 0.98500007 7702941
-0.044476006 -0.18132541 0.98500007 7308950
-0.047327057 -0.17904454 0.98500007 16020271
-0.049607914 -0.17533821 0.98500007 7901353
-0.049607914 -0.17106165 0.98500007 8096672
-0.049607914 -0.16935107 0.98500007 6454678
-0.049607914 -0.16764042 0.98500007 4809361
-0.047897253 -0.16592984 0.98500007 16020271
-0.042765416 -0.16592984 0.98500007 10260863
-0.046186663 -0.1633639 0.98500007 16020271
-0.043620713 -0.1633639 0.98500007 16020271
-0.041054826 -0.15908737 0.98500007 12360018
-0.082109593 -0.15737674 0.98500007 15394281
-0.080398999 -0.15737674 0.98500007 16020271
-0.080398999 -0.1539555 0.98500007 16020271
-0.085530832 -0.15224487 0.98500007 15263203
-0.082679808 -0.15167467 0.98500007 15451052
-0.080398999 -0.15224487 0.98500007 16020271
-0.039344173 -0.14540242 0.98500007 16020271
-0.037633579 -0.14540242 0.98500007 12493680
-0.0401995 -0.1428365 0.98500007 13071679
-0.039344173 -0.14027059 0.98500007 16020271
-0.037633579 -0.14027059 0.98500007 12227685
-0.039344173 -0.13513871 0.98500007 16020271
-0.039344173 -0.12829626 0.98500007 16020271
-0.043467604 -0.18073377 0.98800009 9991537
-0.040321935 -0.18101972 0.98800004 10898540
-0.037748203 -0.18187764 0.98800004 12757641
-0.046327334 -0.17844597 0.98800004 16020271
-0.043753568 -0.17844597 0.98800004 6386579
-0.041179869 -0.17844597 0.98800004 7948923
-0.048043136 -0.17587224 0.98800004 11763562
-0.046327334 -0.17587224 0.98800004 11631721
-0.044611469 -0.17673016 0.98800004 16020271
-0.048615091 -0.17272656 0.98800009 10585217
-0.046327334 -0.17158265 0.98800004 16020271
-0.044611469 -0.17158265 0.98800004 16020271
-0.041179869 -0.17158265 0.98800004 7995757
-0.048043136 -0.16900894 0.98800004 11235939
-0.046327334 -0.16986686 0.98800004 6448793
-0.044611469 -0.16986686 0.98800004 7038618
-0.046327334 -0.1664352 0.98800004 16020271
-0.044611469 -0.1664352 0.98800004 8879960
-0.082359672 -0.1595719 0.98800004 15460584
-0.08064387 -0.1595719 0.98800004 16020271
-0.08064387 -0.15614025 0.98800004 16020271
-0.08493343 -0.1544244 0.98800004 15641994
-0.082359672 -0.1544244 0.98800004 15593194
-0.087507136 -0.15099277 0.98800004 15263203
-0.08493343 -0.15099277 0.98800004 15641481
-0.087507136 -0.14927691 0.98800004 15263460
-0.085791335 -0.14927691 0.98800004 15328483
-0.037748203 -0.14412944 0.98800004 12493162
-0.037748203 -0.14241362 0.98800004 12360293
-0.043025918 -0.17726678 0.99100006 16020271
-0.040444367 -0.17726678 0.99100006 11883347
-0.043886423 -0.17554572 0.99100006 16020271
-0.040444367 -0.17554572 0.99100006 16020271
-0.046468005 -0.17382471 0.99100006 7442087
-0.043599587 -0.17325103 0.99100006 16020271
-0.040157523 -0.17325103 0.99100006 13259328
-0.046468005 -0.16866158 0.99100006 16020271
-0.043599587 -0.16923527 0.99100006 13195853
-0.040731218 -0.16980895 0.99100006 10778255
-0.08433082 -0.15661436 0.99100006 15263208
-0.08260975 -0.15661436 0.99100006 15460842
