# .PCD v0.7 - Point Cloud Data file format
VERSION 0.7
FIELDS x y z rgba
SIZE 4 4 4 4
TYPE F F F U
COUNT 1 1 1 1
WIDTH 912
HEIGHT 1
VIEWPOINT 0 0 0 1 0 0 0
POINTS 912
DATA ascii
-0.10770115 -0.09423849 0.96900004 11973555
-0.10349405 -0.09423849 0.96900004 10598841
-0.1009698 -0.09423849 0.96900004 9930159
-0.10685971 -0.091714233 0.96900004 6424234
-0.10349405 -0.091714233 0.96900004 7811501
-0.1009698 -0.091714233 0.96900004 9199531
-0.10938396 -0.088348575 0.96900004 11710387
-0.10685971 -0.088348575 0.96900004 9132720
-0.10349405 -0.088348582 0.96900004 10586290
-0.1001284 -0.088348582 0.96900004 9199531
-0.097604133 -0.088348575 0.96900004 9264820
-0.095921323 -0.087507173 0.96900004 6424234
-0.11106675 -0.084982924 0.96900004 9067693
-0.10938396 -0.084982924 0.96900004 11645615
-0.10685971 -0.084982917 0.96900004 9133483
-0.10349405 -0.084982917 0.96900004 10521003
-0.1001284 -0.084982924 0.96900004 10193317
-0.097604133 -0.084982924 0.96900004 8872098
-0.095921323 -0.084982924 0.96900004 8806563
-0.11106675 -0.082458667 0.96900004 11776177
-0.10938396 -0.082458667 0.96900004 6424234
-0.10685971 -0.082458667 0.96900004 11711157
-0.10349405 -0.082458667 0.96900004 11712182
-0.1001284 -0.082458667 0.96900004 9666180
-0.097604133 -0.082458667 0.96900004 8747009
-0.095921323 -0.082458667 0.96900004 8531244
-0.11106675 -0.079093009 0.96900004 11644841
-0.10938396 -0.079934433 0.96900004 9001130
-0.10685971 -0.079934433 0.96900004 6424234
-0.10349405 -0.079934433 0.96900004 9002158
-0.1001284 -0.079934433 0.96900004 8213419
-0.097604133 -0.080775857 0.96900004 6906973
-0.095921323 -0.080775857 0.96900004 6424234
-0.10433548 -0.077410206 0.96900004 11841988
-0.10770115 -0.049643476 0.96900004 6424234
-0.13109228 -0.18691224 0.97400004 15066338
-0.128555 -0.18691224 0.97400004 10646978
-0.13109228 -0.18437494 0.97400004 15395306
-0.128555 -0.18437494 0.97400004 6424234
-0.13109228 -0.18268347 0.97400004 10975690
-0.10994837 -0.18099192 0.97400004 12829624
-0.11163986 -0.17930044 0.97400004 12696765
-0.10994837 -0.17930044 0.97400004 12959163
-0.10994837 -0.17591737 0.97400004 12698047
-0.10318229 -0.17422588 0.97400004 12961737
-0.10402807 -0.17253435 0.97400004 12894914
-0.13335519 -0.16880399 0.97200006 6424234
-0.13082311 -0.16964802 0.97200006 13284056
-0.12829103 -0.16964802 0.97200006 6424234
-0.10825688 -0.16915134 0.97400004 12697800
-0.10318229 -0.1699971 0.97400004 12631997
-0.13082311 -0.16711597 0.97200006 15527146
-0.12829103 -0.16711597 0.97200006 15855338
-0.10882071 -0.16689599 0.9740001 8471730
-0.10656533 -0.16661407 0.97400004 12434114
-0.10402807 -0.16661407 0.97400004 9330608
-0.10064506 -0.16661407 0.97400004 6424234
-0.10882071 -0.16294913 0.9740001 10321333
-0.10656533 -0.16323105 0.97400004 12171704
-0.10402807 -0.16323105 0.97400004 7877293
-0.10064506 -0.16323105 0.97400004 9265331
-0.098107763 -0.16238527 0.97400004 11842495
-0.11163986 -0.15984802 0.97400004 9265074
-0.10910262 -0.15984802 0.97400004 9264562
-0.10656533 -0.15984802 0.97400004 12171187
-0.10402807 -0.15984802 0.97400004 8804784
-0.10036315 -0.16012995 0.9740001 9861307
-0.098107763 -0.15984802 0.97400004 11975356
-0.11163986 -0.15731077 0.97400004 12170425
-0.10910262 -0.15731077 0.97400004 11975096
-0.10656533 -0.15731077 0.97400004 11185838
-0.10381446 -0.15698774 0.97200006 10924455
-0.10071974 -0.15755042 0.97200006 11448760
-0.098107763 -0.15731077 0.97400004 11647424
-0.11220371 -0.15449157 0.9740001 8339884
-0.10899147 -0.15461457 0.97300005 7943342
-0.10634651 -0.15445568 0.97200006 10333625
-0.10381446 -0.15445568 0.97200006 6424234
-0.10043839 -0.15445568 0.97200006 9199792
-0.098107763 -0.15477347 0.97400004 11384512
-0.11558675 -0.15167236 0.9740001 6424234
-0.11242832 -0.15131316 0.97350001 10849204
-0.1088786 -0.15107958 0.97200006 10849465
-0.10634651 -0.15107958 0.97200006 10991035
-0.10381445 -0.15107958 0.97200006 9067442
-0.10043839 -0.15107958 0.97200006 10652855
-0.098007038 -0.15123588 0.97300005 11909565
-0.11586867 -0.14800742 0.97400004 9264554
-0.11237101 -0.14870036 0.97300005 12368057
-0.1088786 -0.14854753 0.97200006 12499644
-0.10634651 -0.14854753 0.97200006 12303035
-0.10381446 -0.14854753 0.97200006 12171451
-0.10043839 -0.14854753 0.97200006 12171453
-0.098107763 -0.14885318 0.97400004 12172477
-0.11840594 -0.14547016 0.97400004 11117495
-0.11575058 -0.1453208 0.97300005 12171441
-0.11225466 -0.14601545 0.97200006 9264558
-0.10887859 -0.14601545 0.97200006 9396146
-0.10634651 -0.14601545 0.97200006 12368828
-0.10381446 -0.14601545 0.97200006 6424234
-0.10043839 -0.14601545 0.97200006 9199796
-0.097409628 -0.1458337 0.97266674 10124727
-0.11840594 -0.14293288 0.97400004 10985650
-0.11586867 -0.14293288 0.97400004 6424234
-0.11225465 -0.14263937 0.97200006 10717874
-0.10887859 -0.14263937 0.97200006 10849463
-0.10634651 -0.14263937 0.97200006 12565435
-0.10381446 -0.14263937 0.97200006 9396658
-0.1004384 -0.14263938 0.97200006 10784951
-0.097409628 -0.14301912 0.97266674 12304318
-0.1209432 -0.13954985 0.97400004 8999855
-0.11840594 -0.13954985 0.97400004 10785954
-0.11586867 -0.13954985 0.97400004 7811756
-0.11225466 -0.1392633 0.97200006 10718129
-0.1088786 -0.1392633 0.97200006 10849459
-0.10634651 -0.1392633 0.97200006 12499640
-0.10381446 -0.1392633 0.97200006 9462194
-0.10043839 -0.1392633 0.97200006 9396660
-0.097906306 -0.1392633 0.97200006 12435136
-0.11840594 -0.13701259 0.97400004 10587804
-0.11586867 -0.13616684 0.97400004 10652593
-0.11225466 -0.13588724 0.97200006 9264560
-0.1088786 -0.13588724 0.97200006 10783923
-0.10634651 -0.13588724 0.97200006 12368058
-0.10381446 -0.13588722 0.97200006 9461683
-0.10043839 -0.13588724 0.97200006 10915770
-0.098007038 -0.13602616 0.97300005 12500162
-0.11502289 -0.13362956 0.97400004 12040119
-0.11225466 -0.13335516 0.97200006 11974333
-0.1088786 -0.13335516 0.97200006 12170939
-0.10634651 -0.13335516 0.97200006 12302012
-0.10381446 -0.13335516 0.97200006 12500417
-0.10043839 -0.13335516 0.97200006 12500934
-0.098107763 -0.13362956 0.97400004 12566722
-0.11558675 -0.13137421 0.9740001 10124212
-0.11225465 -0.13082311 0.97200006 6424234
-0.10887859 -0.13082311 0.97200006 9199027
-0.10634651 -0.13082311 0.97200006 12302013
-0.10381446 -0.13082311 0.97200006 6424234
-0.1004384 -0.13082311 0.97200006 9462454
-0.098107763 -0.13109228 0.97400004 12370373
-0.11558675 -0.1279912 0.9740001 8274350
-0.11225466 -0.12744704 0.97200006 10586549
-0.1088786 -0.12744704 0.97200006 10651831
-0.10634651 -0.12744704 0.97200006 12302782
-0.10381445 -0.12744704 0.97200006 9396404
-0.10043839 -0.12744704 0.97200006 11046840
-0.098007038 -0.12757903 0.97300005 11714497
-0.11586867 -0.12432623 0.97400004 9199021
-0.11225465 -0.12407093 0.97200006 10586549
-0.1088786 -0.12407093 0.97200006 10718135
-0.10634651 -0.12407093 0.97200006 12368318
-0.10381445 -0.12407093 0.97200006 9396404
-0.10043839 -0.12407093 0.97200006 10981559
-0.097161286 -0.12419859 0.97300005 10653882
-0.11502289 -0.1209432 0.97400004 9198515
-0.11225466 -0.12153886 0.97200006 12040634
-0.1088786 -0.12153886 0.97200006 12237500
-0.10634651 -0.12153886 0.97200006 12434113
-0.10381446 -0.12153886 0.97200006 12499906
-0.10043839 -0.12153886 0.97200006 12632254
-0.09684696 -0.1210584 0.97266674 10716345
-0.094724722 -0.1209432 0.97400004 13026758
-0.11502289 -0.11840592 0.97400004 12039866
-0.11225466 -0.11900682 0.97200006 9199282
-0.10887859 -0.11900682 0.97200006 9330611
-0.10634651 -0.11900682 0.97200006 12434882
-0.10381445 -0.11900682 0.97200006 6424234
-0.1004384 -0.11900682 0.97200006 9528245
-0.097409628 -0.11880653 0.97266674 12960707
-0.094724722 -0.11840592 0.97400004 13093066
-0.11502289 -0.11586866 0.97400004 11907255
-0.11225465 -0.11563075 0.97200006 7811758
-0.10887859 -0.11563075 0.97200006 10784184
-0.10634651 -0.11563075 0.97200006 12434368
-0.10381445 -0.11563074 0.97200006 9462198
-0.10043839 -0.11563075 0.97200006 11113149
-0.097161286 -0.1157497 0.97300005 9594038
-0.094724722 -0.11586866 0.97400004 12895690
-0.11558675 -0.11220372 0.9740001 8208045
-0.11225465 -0.11225466 0.97200006 10521522
-0.1088786 -0.11225466 0.97200006 10718136
-0.10634651 -0.11225466 0.97200006 12368831
-0.10381445 -0.11225466 0.97200006 9462197
-0.10043839 -0.11225466 0.97200006 11047100
-0.097161286 -0.11237015 0.97300005 11047611
-0.094724722 -0.11333141 0.97400004 12632507
-0.12348047 -0.10825685 0.97400004 6424234
-0.1209432 -0.10825685 0.97400004 6368389
-0.11840594 -0.10825685 0.97400004 8416615
-0.11558675 -0.1088207 0.9740001 9664161
-0.11225465 -0.10887858 0.97200006 9199278
-0.1088786 -0.10887858 0.97200006 10652597
-0.10634651 -0.10887858 0.97200006 12302778
-0.10381446 -0.10887858 0.97200006 9396404
-0.10043839 -0.10887858 0.97200006 10916026
-0.097161286 -0.10899059 0.97300005 11047358
-0.1209432 -0.10656536 0.97400004 6314596
-0.11840594 -0.10656536 0.97400004 8418645
-0.11586867 -0.10656536 0.97400004 10855056
-0.11225466 -0.10634654 0.97200006 11975091
-0.1088786 -0.10634654 0.97200006 12040885
-0.10634651 -0.10634654 0.97200006 12237494
-0.10381446 -0.10634654 0.97200006 12237497
-0.10043839 -0.10634654 0.97200006 12368832
-0.097161293 -0.10645595 0.97300005 12500930
-0.12114178 -0.1036744 0.97333336 6424234
-0.11880653 -0.10416644 0.97266674 7689077
-0.11580876 -0.10397512 0.97350007 6424234
-0.11225465 -0.10381448 0.97200006 9133738
-0.1088786 -0.10381448 0.97200006 9199023
-0.10634651 -0.10381448 0.97200006 12170933
-0.10381445 -0.10381448 0.97200006 6424234
-0.10043839 -0.10381448 0.97200006 9265329
-0.097111791 -0.10386832 0.97250009 9199791
-0.094724722 -0.10318234 0.97400004 11779511
-0.12153889 -0.10043837 0.97200006 6237050
-0.11912838 -0.10054171 0.97300005 7163250
-0.11580876 -0.1005938 0.97350001 8540315
-0.11225466 -0.10043837 0.97200006 10586283
-0.1088786 -0.10043837 0.97200006 10586033
-0.10634651 -0.10043837 0.97200006 12105141
-0.10381446 -0.10043837 0.97200006 9265073
-0.10043839 -0.10043837 0.97200006 10062772
-0.097062297 -0.10043837 0.97200006 9532839
-0.094530217 -0.10043837 0.97200006 10263465
-0.12009743 -0.096416242 0.97400004 6424234
-0.11880653 -0.097409628 0.97266674 7233888
-0.11563075 -0.09706229 0.97200006 8408471
-0.11225465 -0.09706229 0.97200006 10520487
-0.1088786 -0.09706229 0.97200006 10520496
-0.10634651 -0.09706229 0.97200006 12039864
-0.10381445 -0.097062297 0.97200006 9330611
-0.1004384 -0.097062297 0.97200006 9796530
-0.097062305 -0.097062297 0.97200006 8218533
-0.094530217 -0.09706229 0.97200006 8687007
-0.12066128 -0.093597077 0.9740001 6234257
-0.11840594 -0.093878992 0.97400004 7824981
-0.11550686 -0.094096087 0.97333336 8938637
-0.11225466 -0.094530247 0.97200006 11842219
-0.1097226 -0.094530247 0.97200006 11776949
-0.10634651 -0.094530247 0.97200006 12170424
-0.099594384 -0.094530247 0.97200006 9736366
-0.097062305 -0.094530247 0.97200006 10001323
-0.093532227 -0.094096079 0.97333336 8939687
-0.1209432 -0.091341734 0.97400004 6106754
-0.1181628 -0.091154173 0.97200006 7626835
-0.1159121 -0.091716848 0.97200006 7813026
-0.11225466 -0.091998175 0.97200006 9067687
-0.1097226 -0.091998182 0.97200006 11711158
-0.099594384 -0.091998182 0.97200006 6424234
-0.097062305 -0.091998175 0.97200006 8936879
-0.09403123 -0.091779374 0.97266674 9862319
-0.1209432 -0.089650199 0.97400004 6106758
-0.1181628 -0.088622108 0.97200006 7694419
-0.11563075 -0.088622101 0.97200006 6424234
-0.11225465 -0.088622108 0.97200006 10389162
-0.096218295 -0.08946611 0.97200006 12105399
-0.093781725 -0.088713273 0.97300005 10652078
-0.12009743 -0.085421428 0.97400004 6424234
-0.1181628 -0.085246027 0.97200006 7758157
-0.11563075 -0.085246027 0.97200006 8211092
-0.1130987 -0.085246027 0.97200006 11777184
-0.09403123 -0.085586414 0.97266674 11054485
-0.092091978 -0.084488854 0.97300005 8473735
-0.12009743 -0.08203841 0.97400004 6239621
-0.11828437 -0.081953309 0.97300005 6424234
-0.11563075 -0.081869952 0.97200006 8276887
-0.11253601 -0.081588611 0.97200006 10057891
-0.093781725 -0.081954181 0.97300005 7418225
-0.091341749 -0.08203841 0.97400004 7293255
-0.12009743 -0.079501122 0.97400004 6316119
-0.11840594 -0.079501122 0.97400004 7888714
-0.11563075 -0.07933788 0.97200006 9997689
-0.1130987 -0.07933788 0.97200006 11644313
-0.097062305 -0.07933788 0.97200006 7885490
-0.093781725 -0.079419501 0.97300005 9149627
-0.11840594 -0.077809632 0.97400004 7756906
-0.11558675 -0.077245787 0.9740001 6424234
-0.11237015 -0.076883979 0.97300005 9264310
-0.10887859 -0.076805837 0.97200006 9331642
-0.10634651 -0.076805837 0.97200006 9067447
-0.10353311 -0.076524496 0.97200006 10717380
-0.1004384 -0.076805837 0.97200006 9200063
-0.097062305 -0.076805837 0.97200006 8405182
-0.093830362 -0.076923922 0.97350007 9793482
-0.12009743 -0.072735079 0.97400004 6424234
-0.11840594 -0.072735079 0.97400004 9801368
-0.11586867 -0.073580816 0.97400004 9659317
-0.11248563 -0.073580816 0.97400004 12035015
-0.10893503 -0.073467068 0.97250009 10121920
-0.10634651 -0.073429734 0.97200006 14673371
-0.10381446 -0.073429734 0.97200006 8863415
-0.1004384 -0.073429734 0.97200006 13549010
-0.097111791 -0.073467068 0.97250009 13615076
-0.094724722 -0.073580816 0.97400004 15728374
-0.12009743 -0.070197798 0.97400004 6575937
-0.11840594 -0.070197798 0.97400004 7815547
-0.11558675 -0.070479713 0.9740001 10252450
-0.11248563 -0.070197798 0.97400004 10387884
-0.10910262 -0.070197798 0.97400004 10453678
-0.10656533 -0.070197798 0.97400004 11380144
-0.10386829 -0.07009013 0.97250003 9460916
-0.10043839 -0.070053652 0.97200006 10452402
-0.097161286 -0.070125729 0.97300005 10584251
-0.094724722 -0.070197798 0.97400004 11773885
-0.10910262 -0.067660518 0.97400004 7832995
-0.10656533 -0.067660518 0.97400004 8163240
-0.10392213 -0.067591056 0.97300005 8359084
-0.10043839 -0.067521587 0.97200006 8489901
-0.097161293 -0.067591056 0.97300005 8489905
-0.094724722 -0.067660518 0.97400004 8424117
-0.1181628 -0.064145513 0.97200006 5855583
-0.11542813 -0.064753354 0.97266674 6045048
-0.11220371 -0.064841345 0.9740001 6432669
-0.10910262 -0.06512326 0.97400004 7423658
-0.10656533 -0.06512326 0.97400004 8621489
-0.10386829 -0.0650234 0.97250009 6424234
-0.10043839 -0.064989537 0.97200006 7687344
-0.097111791 -0.065023407 0.97250009 7752882
-0.094724722 -0.06512326 0.97400004 9081536
-0.1181628 -0.062457494 0.97200006 6424234
-0.11563075 -0.062457494 0.97200006 6238087
-0.11220371 -0.062022164 0.9740001 6703770
-0.10910262 -0.061740242 0.97400004 8087724
-0.10634651 -0.061613463 0.97200006 8818612
-0.10381446 -0.061613463 0.97200006 7752880
-0.1004384 -0.061613463 0.97200006 8614582
-0.097161293 -0.061676852 0.97300005 8680379
-0.094724722 -0.061740242 0.97400004 9542339
-0.11586867 -0.057511445 0.97400004 6424234
-0.11220371 -0.05807529 0.9740001 6571416
-0.10825688 -0.058357216 0.97400004 7554991
-0.10634651 -0.058237385 0.97200006 9016500
-0.10381446 -0.058237385 0.97200006 7884464
-0.1004384 -0.058237385 0.97200006 8811961
-0.097211652 -0.058326825 0.97350001 8877245
-0.094724722 -0.058357216 0.97400004 9806281
-0.1153494 -0.055142652 0.97200006 6110839
-0.11231197 -0.054889962 0.97250003 6310030
-0.10893504 -0.054889962 0.97250009 7627171
-0.10634651 -0.054861307 0.97200006 9409717
-0.10381446 -0.054861307 0.97200006 8016055
-0.10043839 -0.054861307 0.97200006 9140672
-0.097161286 -0.054917749 0.97300005 9470147
-0.094724722 -0.054974191 0.97400004 8542900
-0.11225466 -0.052329265 0.97200006 6381178
-0.1088786 -0.052329265 0.97200006 7830941
-0.10634651 -0.052329265 0.97200006 9737907
-0.10381446 -0.052329265 0.97200006 10396868
-0.10064506 -0.052436937 0.97400004 10533077
-0.097262017 -0.052436937 0.97400004 7689397
-0.11225466 -0.04979717 0.97200006 6298522
-0.1097226 -0.04979717 0.97200006 6715535
-0.10634651 -0.04979717 0.97200006 9870519
-0.10386743 -0.049822353 0.97250009 6424234
-0.10064506 -0.049899634 0.97400004 8410812
-0.098107763 -0.050745402 0.97400004 8754117
-0.11141062 -0.047265124 0.97200006 6249055
-0.10859726 -0.046702437 0.97200006 6966929
-0.10634651 -0.046421096 0.97200006 8748188
-0.10392039 -0.046468854 0.97300005 7022766
-0.10689356 -0.19342647 0.97700006 13156547
-0.1001067 -0.19342647 0.97700006 12235717
-0.1306477 -0.19172972 0.97700006 13948887
-0.1281026 -0.19088139 0.97700006 12100811
-0.12555756 -0.19088137 0.97700006 9001910
-0.11368048 -0.19003303 0.97700006 6424234
-0.10943867 -0.19088137 0.97700006 7943342
-0.10604522 -0.19088137 0.97700006 8074671
-0.10350011 -0.19088137 0.97700006 9725367
-0.10095505 -0.19088137 0.97700006 11311039
-0.12725426 -0.18748793 0.97700006 6424234
-0.12555756 -0.18748793 0.97700006 9529536
-0.11792229 -0.18748793 0.97700006 9199536
-0.11537718 -0.18748793 0.97700006 9330608
-0.1128321 -0.18748793 0.97700006 9396657
-0.10943867 -0.18748793 0.97700006 11113142
-0.10604521 -0.18748793 0.97700006 9659828
-0.10350011 -0.18748793 0.97700006 13157825
-0.10123783 -0.18777072 0.97700012 6424234
-0.11707395 -0.1840945 0.97700006 6424234
-0.11537718 -0.1840945 0.97700006 12237241
-0.1128321 -0.1840945 0.97700006 9396403
-0.10943867 -0.1840945 0.97700006 11113142
-0.10604522 -0.1840945 0.97700006 11112884
-0.10350011 -0.1840945 0.97700006 12435387
-0.10095505 -0.1840945 0.97700006 9594550
-0.11792229 -0.1815494 0.97700006 9200049
-0.11537718 -0.1815494 0.97700006 12236985
-0.1128321 -0.1815494 0.97700006 9396658
-0.10859032 -0.1815494 0.97700006 12697269
-0.10604522 -0.1815494 0.97700006 12499124
-0.10350011 -0.1815494 0.97700006 12367544
-0.11707395 -0.17900433 0.97700006 6424234
-0.11537718 -0.17900433 0.97700006 9330097
-0.11311489 -0.17872155 0.97700012 6424234
-0.10915589 -0.17872155 0.97700012 6424234
-0.10604522 -0.17900434 0.97700006 7943085
-0.10350011 -0.17900433 0.97700006 9594803
-0.1001067 -0.17815596 0.97700006 6424234
-0.1125493 -0.17589365 0.97700012 10387127
-0.10915589 -0.17532808 0.97700012 10585272
-0.10604522 -0.17561086 0.97700006 11113402
-0.10350011 -0.17645921 0.97700006 13027523
-0.10095505 -0.17561086 0.97700006 9726136
-0.1128321 -0.17221743 0.97700006 7943087
-0.10943867 -0.17221741 0.97700006 11047100
-0.106328 -0.17193465 0.97700012 8537266
-0.10095505 -0.17221743 0.97700006 9659831
-0.11537718 -0.16967233 0.97700006 12303030
-0.1128321 -0.16967233 0.97700006 12500156
-0.11028703 -0.16967233 0.97700006 12697539
-0.10604522 -0.16967233 0.97700006 12632512
-0.10095505 -0.16967233 0.97700006 12432823
-0.11707395 -0.16712725 0.97700006 6424234
-0.11537718 -0.16712725 0.97700006 9264815
-0.1128321 -0.16712725 0.97700006 6424234
-0.11028703 -0.16627888 0.97700006 12499904
-0.098409943 -0.16712725 0.97700006 12961720
-0.11763951 -0.16345102 0.97700012 8142765
-0.11537718 -0.16288543 0.97700006 12171701
-0.1128321 -0.16373381 0.97700006 9330610
-0.11028703 -0.16458218 0.97700006 12369339
-0.097561598 -0.16373381 0.97700006 9396407
-0.1221641 -0.159492 0.97700006 11437469
-0.11707395 -0.16034037 0.97700006 9264816
-0.11537718 -0.16034037 0.97700006 12105907
-0.11368048 -0.16034037 0.97700006 9330865
-0.096713245 -0.16034037 0.97700006 9199797
-0.11707395 -0.15694693 0.97700006 9199530
-0.11537718 -0.15694693 0.97700006 11974057
-0.11368048 -0.15694693 0.97700006 9264302
-0.096713245 -0.15694693 0.97700006 6424234
-0.095016487 -0.15694693 0.97700006 9001901
-0.11707395 -0.15440185 0.97700006 6424234
-0.11537718 -0.15440185 0.97700006 11908005
-0.096713245 -0.15440185 0.97700006 6424234
-0.095016487 -0.15440185 0.97700006 11450299
-0.11792229 -0.15100835 0.97700006 8738214
-0.096713245 -0.15185672 0.97700006 9002931
-0.095016487 -0.15185672 0.97700006 6424234
-0.11877064 -0.14846329 0.97700006 11118258
-0.096713245 -0.14846329 0.97700006 9265588
-0.095016487 -0.14846329 0.97700006 9265589
-0.1306477 -0.14506984 0.97700006 15395559
-0.1281026 -0.14506984 0.97700006 6424234
-0.12470917 -0.14506984 0.97700006 10451148
-0.12131572 -0.14506985 0.97700006 8605359
-0.095016487 -0.14506984 0.97700006 12171967
-0.1281026 -0.14252478 0.97700006 15525607
-0.12470917 -0.14252478 0.97700006 10450894
-0.12131572 -0.14252478 0.97700006 8999599
-0.096713245 -0.14252478 0.97700006 6424234
-0.095016487 -0.14252478 0.97700006 6424234
-0.1281026 -0.13997968 0.97700006 10909382
-0.12470917 -0.13997968 0.97700006 10517199
-0.096713245 -0.13997968 0.97700006 9462453
-0.1281026 -0.13743457 0.97700006 10843588
-0.12470917 -0.13658623 0.97700006 12431317
-0.12131572 -0.13658623 0.97700006 8933555
-0.11877064 -0.1357379 0.97700006 10521750
-0.096713245 -0.13658623 0.97700006 9527735
-0.1221641 -0.13319279 0.97700006 11246786
-0.11820507 -0.13347559 0.97700012 10982806
-0.096713245 -0.13319279 0.97700006 9528247
-0.11792229 -0.13064769 0.97700006 11246491
-0.096713245 -0.13064769 0.97700006 6424234
-0.095016487 -0.13064769 0.97700006 11712923
-0.12046733 -0.128951 0.97700006 6424234
-0.11820507 -0.12781984 0.97700012 7745443
-0.096713245 -0.12810263 0.97700006 8411311
-0.095016487 -0.12810263 0.97700006 6424234
-0.11877064 -0.12470916 0.97700006 10656923
-0.094450921 -0.12442638 0.97700012 10190778
-0.12046733 -0.12046736 0.97700006 6424234
-0.11792229 -0.12131572 0.97700006 9927837
-0.093319781 -0.12131572 0.97700006 9791160
-0.12470917 -0.11707392 0.97700006 6424234
-0.12103292 -0.1176395 0.97700012 7489401
-0.11792229 -0.11792227 0.97700006 9795992
-0.093319781 -0.11792228 0.97700006 9725882
-0.09162309 -0.11792228 0.97700006 13028043
-0.12131572 -0.11537718 0.97700006 7692127
-0.11792229 -0.11537718 0.97700006 10920335
-0.093319781 -0.11537718 0.97700006 6424234
-0.09162309 -0.11537718 0.97700006 13159622
-0.12470917 -0.11368048 0.97700006 6424234
-0.12131572 -0.11283211 0.97700006 6630016
-0.11820507 -0.11311489 0.97700012 8609674
-0.093885355 -0.11254932 0.97700012 8406193
-0.12386079 -0.11028704 0.97700006 6424234
-0.12131572 -0.11028704 0.97700006 6838369
-0.11792229 -0.11028704 0.97700006 9930881
-0.094168134 -0.10943867 0.97700006 10390961
-0.094168134 -0.10604522 0.97700006 10653879
-0.093319781 -0.10350015 0.97700006 11911860
-0.093319781 -0.10095502 0.97700006 6424234
-0.09162309 -0.10095502 0.97700006 6424234
-0.1221641 -0.096713215 0.97700006 6051662
-0.093319781 -0.09756159 0.97700006 7488415
-0.09162309 -0.09756159 0.97700006 7618457
-0.1221641 -0.095016517 0.97700006 6116695
-0.09162309 -0.094168141 0.97700006 10395050
-0.089926325 -0.094168141 0.97700006 7949480
-0.09162309 -0.091623075 0.97700006 11908024
-0.12131572 -0.088229626 0.97700006 6237575
-0.09162309 -0.089077979 0.97700006 11974328
-0.12470917 -0.08568453 0.97700006 6238084
-0.1221641 -0.08568453 0.97700006 6050664
-0.09162309 -0.086532876 0.97700006 11320487
-0.089926325 -0.084836185 0.97700006 6424234
-0.12386079 -0.082291096 0.97700006 6303878
-0.1221641 -0.082291096 0.97700006 6182504
-0.089360766 -0.082573883 0.97700012 7085447
-0.12386079 -0.079746 0.97700006 6315368
-0.12131572 -0.078897648 0.97700006 6369671
-0.09162309 -0.078897648 0.97700006 10528968
-0.089926325 -0.078897648 0.97700006 7752879
-0.12046733 -0.076352552 0.97700006 6424234
-0.11792229 -0.076352552 0.97700006 6424234
-0.09162309 -0.076352552 0.97700006 14348282
-0.089926325 -0.076352552 0.97700006 6424234
-0.12046733 -0.074655801 0.97700006 6424234
-0.11877064 -0.074655801 0.97700006 10330257
-0.093319781 -0.073807456 0.97700006 11567825
-0.09162309 -0.073807456 0.97700006 11567826
-0.089926325 -0.073807456 0.97700006 6424234
-0.11707395 -0.069565661 0.97700006 6424234
-0.093319781 -0.070414007 0.97700006 9724862
-0.09162309 -0.070414007 0.97700006 9790399
-0.12046733 -0.067020573 0.97700006 6445394
-0.11792229 -0.067020573 0.97700006 6424234
-0.11537718 -0.067868926 0.97700006 6313858
-0.11311489 -0.06730336 0.97700012 6771357
-0.093319781 -0.067020573 0.97700006 7358896
-0.093319781 -0.064475477 0.97700006 6424234
-0.11707395 -0.061082032 0.97700006 6424234
-0.11537718 -0.061082032 0.97700006 6424234
-0.11368048 -0.061082032 0.97700006 6185600
-0.093319781 -0.061930403 0.97700006 7950262
-0.11707395 -0.059385333 0.97700006 6052190
-0.11537718 -0.059385333 0.97700006 6052188
-0.11368048 -0.059385333 0.97700006 6119038
-0.11028703 -0.058536962 0.97700006 8422312
-0.093319781 -0.058536962 0.97700006 8082614
-0.093319781 -0.05514352 0.97700006 8281790
-0.094168134 -0.052598447 0.97700006 7223716
-0.09162309 -0.052598447 0.97700006 7564438
-0.097278818 -0.049770534 0.97700012 6826924
-0.094168134 -0.050053325 0.97700006 6706350
-0.09162309 -0.050053328 0.97700006 6912426
-0.089926325 -0.049204953 0.97700006 7636397
-0.1018034 -0.047508258 0.97700006 6424234
-0.096713245 -0.047508258 0.97700006 8423350
-0.095016487 -0.047508258 0.97700006 6424234
-0.12424113 -0.19231845 0.98000002 9675695
-0.12168823 -0.19231845 0.98000002 11252385
-0.11828438 -0.19231845 0.98000002 9199275
-0.1148805 -0.19231845 0.98000002 9330354
-0.11232758 -0.19316943 0.98000002 9527731
-0.10977472 -0.19402041 0.98000002 12894141
-0.10551988 -0.19402041 0.98000002 12565961
-0.10296696 -0.19402041 0.98000002 12040387
-0.097861171 -0.19316943 0.98000002 9396664
-0.12424113 -0.19061656 0.98000002 6424234
-0.12168823 -0.19061656 0.98000002 8737949
-0.11828438 -0.19061656 0.98000002 6424234
-0.11573146 -0.19061656 0.98000002 6424234
-0.11232758 -0.19061656 0.98000002 6424234
-0.097861171 -0.19061656 0.98000002 13223879
-0.12424113 -0.18806365 0.98000002 6424234
-0.12168823 -0.18806365 0.98000002 7546778
-0.11828438 -0.18806365 0.98000002 9265072
-0.1004141 -0.18721269 0.98000002 6424234
-0.097861163 -0.18806365 0.98000002 6424234
-0.12934692 -0.18380883 0.98000002 15856112
-0.127645 -0.18465978 0.98000002 11043528
-0.12509212 -0.18465978 0.98000002 7154596
-0.12168823 -0.18465978 0.98000002 9792116
-0.11913534 -0.18465978 0.98000002 11975355
-0.097861171 -0.18465978 0.98000002 8009393
-0.1301979 -0.18125591 0.98000002 11041484
-0.127645 -0.18125591 0.98000002 11239879
-0.12509212 -0.18125591 0.98000002 8281520
-0.12140457 -0.18153957 0.98000002 9399940
-0.11913534 -0.18040496 0.98000002 12042171
-0.102116 -0.18125591 0.98000002 9396147
-0.1004141 -0.18125591 0.98000002 9461684
-0.097861171 -0.18125591 0.98000002 11111354
-0.095308237 -0.18040496 0.98000002 12960194
-0.12991425 -0.17813569 0.98000002 12624344
-0.127645 -0.17785203 0.98000002 16251879
-0.12509212 -0.17785203 0.98000002 8476085
-0.12083725 -0.17785203 0.98000002 9001119
-0.11856803 -0.17756838 0.98000002 10058935
-0.11573146 -0.17700104 0.98000002 12303034
-0.102116 -0.17870301 0.98000002 6424234
-0.097861171 -0.17785203 0.98000002 11442621
-0.095308237 -0.17785203 0.98000002 13225158
-0.12934692 -0.17529914 0.98000002 6424234
-0.127645 -0.17529914 0.98000002 6424234
-0.12594309 -0.17529914 0.98000002 13228004
-0.12083725 -0.17529914 0.98000002 11579562
-0.11828438 -0.17529914 0.98000002 12040381
-0.1148805 -0.17529914 0.98000002 9330866
-0.097861171 -0.17529914 0.98000002 12896967
-0.095308237 -0.17529914 0.98000002 12959940
-0.12934692 -0.17359719 0.98000002 15921135
-0.127645 -0.17274623 0.98000002 11304907
-0.12509212 -0.17274623 0.98000002 9200829
-0.12140457 -0.17246258 0.98000002 7945630
-0.11828438 -0.17274624 0.98000002 9133490
-0.11573146 -0.17274623 0.98000002 6424234
-0.097861171 -0.17274624 0.98000002 9462194
-0.095308237 -0.17274623 0.98000002 12694978
-0.127645 -0.16934237 0.98000002 11304395
-0.12509212 -0.16934237 0.98000002 7549617
-0.12168823 -0.16934237 0.98000002 7679911
-0.11856803 -0.16962603 0.98000002 11908527
-0.097577512 -0.16962603 0.98000002 10583731
-0.095308237 -0.16934237 0.98000002 13093827
-0.1301979 -0.16678946 0.98000002 11172554
-0.127645 -0.1659385 0.98000002 11305676
-0.12509212 -0.1659385 0.98000002 10525385
-0.12168823 -0.1659385 0.98000002 8933796
-0.11913534 -0.1659385 0.98000002 11711661
-0.11573146 -0.16508755 0.98000002 12171445
-0.09701021 -0.1659385 0.98000002 9791156
-0.095308237 -0.1659385 0.98000002 9725622
-0.127645 -0.1633856 0.98000002 6424234
-0.12509212 -0.1633856 0.98000002 12440795
-0.12168823 -0.1633856 0.98000002 11179681
-0.095308237 -0.1633856 0.98000002 12237507
-0.127645 -0.15998173 0.98000002 6424234
-0.12509212 -0.1608327 0.98000002 6424234
-0.12140457 -0.16111638 0.98000002 8007846
-0.11913534 -0.1608327 0.98000002 9001392
-0.094740942 -0.16054904 0.98000002 6424234
-0.12991425 -0.15714519 0.98000002 15789288
-0.127645 -0.15742885 0.98000002 11238347
-0.12509212 -0.15742885 0.98000002 9597378
-0.12168823 -0.15742885 0.98000002 10120866
-0.11913534 -0.15742885 0.98000002 8935851
-0.093606338 -0.15742885 0.98000002 9198769
-0.1301979 -0.15487595 0.98000002 15657705
-0.127645 -0.15487595 0.98000002 16053742
-0.12480845 -0.15430865 0.98000002 10786765
-0.12168823 -0.15402497 0.98000002 9924005
-0.11913534 -0.15402497 0.98000002 11118508
-0.093606338 -0.15402497 0.98000002 9134003
-0.091904432 -0.153174 0.98000002 6424234
-0.12424113 -0.15147205 0.98000002 12438731
-0.12168823 -0.15147205 0.98000002 8866472
-0.093606338 -0.15147205 0.98000002 6424234
-0.091053441 -0.15147205 0.98000002 11582913
-0.12934692 -0.14891917 0.98000002 15657704
-0.127645 -0.14891917 0.98000002 6424234
-0.12509212 -0.14891917 0.98000002 8010163
-0.12168823 -0.14891917 0.98000002 7678636
-0.093606338 -0.14891917 0.98000002 9330869
-0.091904432 -0.14977014 0.98000002 6424234
-0.093606338 -0.14551531 0.98000002 9265333
-0.094173633 -0.14182779 0.98000002 8405937
-0.094457284 -0.13955855 0.98000002 9528247
-0.13048157 -0.136722 0.98000002 12163277
-0.127645 -0.13615468 0.98000002 6424234
-0.094457291 -0.13700563 0.98000002 6424234
-0.091904432 -0.13615468 0.98000002 12829376
-0.12509212 -0.13360178 0.98000002 8207796
-0.12083725 -0.13360178 0.98000002 7620009
-0.094457284 -0.13360177 0.98000002 9593783
-0.091904432 -0.13360178 0.98000002 12895162
-0.127645 -0.13019791 0.98000002 6424234
-0.12509212 -0.13019791 0.98000002 8207796
-0.1219719 -0.13048157 0.98000002 10525095
-0.093606338 -0.13019791 0.98000002 9133992
-0.091337107 -0.12991427 0.98000002 9664172
-0.127645 -0.127645 0.98000002 8936759
-0.12509212 -0.127645 0.98000002 9138245
-0.12168823 -0.127645 0.98000002 9077348
-0.093606338 -0.127645 0.98000002 11379881
-0.091053441 -0.127645 0.98000002 10984862
-0.127645 -0.12594305 0.98000002 4075591
-0.12480845 -0.12537575 0.98000002 6424234
-0.12168823 -0.12509209 0.98000002 6761345
-0.093606338 -0.12594305 0.98000002 6424234
-0.091053441 -0.12509209 0.98000002 6424234
-0.088500544 -0.12424114 0.98000002 12043462
-0.085096672 -0.12509209 0.98000002 12892351
-0.127645 -0.12083728 0.98000002 6052185
-0.12509212 -0.12168823 0.98000002 6238081
-0.1219719 -0.12197189 0.98000002 8153182
-0.091053441 -0.12168823 0.98000002 11441856
-0.088500544 -0.12168823 0.98000002 9725368
-0.127645 -0.11913532 0.98000002 6051674
-0.12509212 -0.11913532 0.98000002 6424234
-0.12253921 -0.11913532 0.98000002 7365714
-0.090202458 -0.11828437 0.98000002 9725882
-0.12509212 -0.11573146 0.98000002 5920859
-0.09076979 -0.11459686 0.98000002 10520242
-0.12509212 -0.1123276 0.98000002 6172801
-0.091053441 -0.1123276 0.98000002 9352592
-0.091053441 -0.10977471 0.98000002 6424234
-0.088500544 -0.10892373 0.98000002 6424234
-0.085096672 -0.10892373 0.98000002 10079920
-0.091053441 -0.10637084 0.98000002 8279986
-0.088500544 -0.10637084 0.98000002 8740513
-0.086231276 -0.10665451 0.98000002 9866169
-0.09076979 -0.10325065 0.98000002 10192302
-0.088500544 -0.10296698 0.98000002 12565672
-0.086798571 -0.10381796 0.98000002 6424234
-0.090202458 -0.10041405 0.98000002 6424234
-0.088500544 -0.10041405 0.98000002 10919583
-0.085096672 -0.10041405 0.98000002 9999254
-0.090202458 -0.097861156 0.98000002 7818144
-0.088500544 -0.097861156 0.98000002 6424234
-0.086231276 -0.098144822 0.98000002 6424234
-0.088500544 -0.094457299 0.98000002 7950507
-0.086798571 -0.094457299 0.98000002 7950509
-0.12509212 -0.090202458 0.98000002 6106495
-0.090202458 -0.091053441 0.98000002 9133743
-0.088500544 -0.091053441 0.98000002 9199790
-0.12509212 -0.088500544 0.98000002 6237570
-0.090202458 -0.088500544 0.98000002 6424234
-0.088500544 -0.088500544 0.98000002 6424234
-0.086798571 -0.088500544 0.98000002 12565690
-0.127645 -0.085096687 0.98000002 6183261
-0.090202458 -0.086798593 0.98000002 11320492
-0.088500544 -0.08594764 0.98000002 6424234
-0.086798571 -0.085096687 0.98000002 6424234
-0.127645 -0.082543775 0.98000002 6183770
-0.12594309 -0.082543775 0.98000002 6183777
-0.088500544 -0.081692822 0.98000002 6424234
-0.086798571 -0.082543775 0.98000002 7296340
-0.127645 -0.079990864 0.98000002 6249057
-0.12537578 -0.07885626 0.98000002 6307455
-0.12253921 -0.078288957 0.98000002 6380379
-0.088500544 -0.079139911 0.98000002 7753133
-0.086231276 -0.079423562 0.98000002 10463679
-0.12424113 -0.076586999 0.98000002 6116953
-0.12253921 -0.076586999 0.98000002 6642514
-0.088500544 -0.076586999 0.98000002 14413814
-0.086798571 -0.076586999 0.98000002 6424234
-0.12424113 -0.074885041 0.98000002 6424234
-0.12253921 -0.074885041 0.98000002 6967126
-0.088500544 -0.074034095 0.98000002 6424234
-0.086798571 -0.074885041 0.98000002 6424234
-0.090202458 -0.07063023 0.98000002 9855932
-0.088500544 -0.071481183 0.98000002 13943499
-0.091053441 -0.067226365 0.98000002 7891894
-0.091053441 -0.064673461 0.98000002 9279170
-0.091053449 -0.062120572 0.98000002 7154352
-0.091053441 -0.058716707 0.98000002 8081846
-0.091053441 -0.055312842 0.98000002 8156341
-0.088500544 -0.054461863 0.98000002 6424234
-0.090202458 -0.051908981 0.98000002 6699427
-0.088500544 -0.051908981 0.98000002 7108006
-0.095600002 -0.19376078 0.98300004 9593528
-0.094746441 -0.19034648 0.98300004 8074929
-0.094746441 -0.18693221 0.98300004 9923001
-0.091616713 -0.18664768 0.98300004 8735158
-0.094746441 -0.1843715 0.98300004 9791158
-0.091332182 -0.1843715 0.98300004 9988797
-0.12291434 -0.18095723 0.98300004 9710691
-0.094461918 -0.18209532 0.98300004 6424234
-0.091332182 -0.1818108 0.98300004 8140723
-0.12291434 -0.17839646 0.98300004 10305143
-0.093892887 -0.17839646 0.98300004 6424234
-0.092185773 -0.17839646 0.98300004 9791419
-0.12462145 -0.17583577 0.98300004 6424234
-0.12291434 -0.17498219 0.98300004 8607648
-0.093892887 -0.17498219 0.98300004 9723574
-0.093892887 -0.17242149 0.98300004 6424234
-0.093892887 -0.16986077 0.98300004 9922999
-0.093892887 -0.16644648 0.98300004 9725366
-0.093892887 -0.1630322 0.98300004 9462710
-0.091332182 -0.16217864 0.98300004 6424234
-0.088771462 -0.16217864 0.98300004 6424234
-0.091332182 -0.16047147 0.98300004 11909311
-0.087917879 -0.16047147 0.98300004 13025734
-0.091332182 -0.15791076 0.98300004 7811503
-0.087917879 -0.15791076 0.98300004 9527989
-0.12974286 -0.15364291 0.98300004 15789292
-0.12718219 -0.15364291 0.98300004 6424234
-0.09104766 -0.15478103 0.98300004 9861305
-0.087917879 -0.15449649 0.98300004 10584768
-0.12974286 -0.15193574 0.98300004 15723502
-0.12718219 -0.15193574 0.98300004 6424234
-0.090478592 -0.15022862 0.98300004 6424234
-0.088202409 -0.15136671 0.98300004 12436419
-0.091332182 -0.14852147 0.98300004 12303300
-0.091332182 -0.14596075 0.98300004 7877552
-0.088771462 -0.14596075 0.98300004 12565960
-0.091332182 -0.14254647 0.98300004 11047356
-0.087917879 -0.14254647 0.98300004 9528502
-0.091332182 -0.13913219 0.98300004 11244732
-0.087917879 -0.13913219 0.98300004 11376575
-0.090478592 -0.1365715 0.98300004 12894915
-0.087917879 -0.1365715 0.98300004 13027525
-0.085357167 -0.1365715 0.98300004 6424234
-0.13031194 -0.13429528 0.98300004 12360399
-0.12803575 -0.13401076 0.98300004 15591136
-0.090478592 -0.13401076 0.98300004 6424234
-0.087917879 -0.13401076 0.98300004 6424234
-0.085357167 -0.13315721 0.98300004 13878462
-0.090478592 -0.13145003 0.98300004 11845284
-0.087917879 -0.13059647 0.98300004 9265318
-0.085357167 -0.13059647 0.98300004 9920949
-0.087917879 -0.12718217 0.98300004 8671394
-0.085357167 -0.12803575 0.98300004 12825514
-0.083650053 -0.12718217 0.98300004 10448824
-0.12718219 -0.12462147 0.98300004 5713281
-0.087064289 -0.12462147 0.98300004 11911878
-0.083650053 -0.12462147 0.98300004 14606550
-0.087064289 -0.12206075 0.98300004 6424234
-0.085357167 -0.12206075 0.98300004 13290192
-0.083650053 -0.12291431 0.98300004 6424234
-0.088202409 -0.11893098 0.98300004 11110594
-0.087917879 -0.11523218 0.98300004 10054309
-0.087917879 -0.11267145 0.98300004 10253706
-0.087633356 -0.11039528 0.98300004 6424234
-0.085357167 -0.097307153 0.98300004 6424234
-0.085357167 -0.094746456 0.98300004 7885231
-0.087064289 -0.091332167 0.98300004 9331122
-0.085357167 -0.091332167 0.98300004 8676279
-0.083650053 -0.090478592 0.98300004 6424234
-0.087064289 -0.087064303 0.98300004 6424234
-0.085357167 -0.087917879 0.98300004 8938678
-0.085357167 -0.085357182 0.98300004 6424234
-0.085357167 -0.082796469 0.98300004 7944042
-0.083650053 -0.082796469 0.98300004 6424234
-0.087064289 -0.073407166 0.98300004 6424234
-0.087917879 -0.070846438 0.98300004 10447554
-0.088771462 -0.067432165 0.98300004 8490682
-0.087917879 -0.064017877 0.98300004 8352185
-0.087917879 -0.061457153 0.98300004 7754167
-0.087917879 -0.058896448 0.98300004 7688626
-0.087917879 -0.056335751 0.98300004 7700370
-0.09408392 -0.19329968 0.98500007 13024956
-0.092373326 -0.19329968 0.98500007 12828850
-0.091518 -0.19073376 0.98500007 9529016
-0.090662673 -0.18816786 0.98500007 6424234
-0.088952087 -0.1864572 0.98500007 13618644
-0.088381872 -0.18360619 0.98500007 11373508
-0.085530832 -0.18303598 0.98500007 6424234
-0.088096753 -0.18132541 0.98500007 10119612
-0.085530832 -0.18132541 0.98500007 14670050
-0.090662673 -0.17875944 0.98500007 9856699
-0.088952087 -0.17875944 0.98500007 13550540
-0.091518 -0.17533819 0.98500007 9725366
-0.088952087 -0.17533821 0.98500007 13617607
-0.091803119 -0.1722021 0.98500007 10980029
-0.088952087 -0.1727723 0.98500007 13749194
-0.092373326 -0.16935107 0.98500007 6424234
-0.092373326 -0.16678512 0.98500007 9725111
-0.088952087 -0.16678512 0.98500007 13552069
-0.091518 -0.1642192 0.98500007 9593525
-0.088096753 -0.1633639 0.98500007 6424234
-0.085530832 -0.15994267 0.98500007 14537687
-0.087241426 -0.15053427 0.98500007 6424234
-0.087811649 -0.14825344 0.98500007 10650557
-0.087241426 -0.14540242 0.98500007 6424234
-0.085530832 -0.1428365 0.98500007 13879758
-0.085530832 -0.13941526 0.98500007 14077127
-0.085530832 -0.13513871 0.98500007 14010811
-0.083820246 -0.13599403 0.98500007 10777277
-0.083820246 -0.13342813 0.98500007 14867665
-0.083820246 -0.13086219 0.98500007 6424234
-0.087241426 -0.11803256 0.98500007 6424234
-0.085530832 -0.11546662 0.98500007 11257555
-0.083820246 -0.094083905 0.98500007 9479336
-0.083820246 -0.092373312 0.98500007 9611948
-0.083820246 -0.088952087 0.98500007 10467762
-0.087241426 -0.066714063 0.98500007 6424234
-0.090938799 -0.19388841 0.98800004 12563126
-0.089223005 -0.1921726 0.98800004 6424234
-0.089223005 -0.19045675 0.98800004 12960698
-0.088365071 -0.18874095 0.98800004 6424234
-0.087507136 -0.18016182 0.98800004 6424234
-0.08493343 -0.18016182 0.98800004 6424234
-0.087507136 -0.17844597 0.98800004 6424234
-0.08493343 -0.17844597 0.98800004 15132128
-0.087507136 -0.17673016 0.98800004 6424234
-0.090938799 -0.17158265 0.98800004 6424234
-0.089223005 -0.17158265 0.98800004 13814985
-0.090938799 -0.16900894 0.98800004 9857464
-0.089223005 -0.16986686 0.98800004 6424234
-0.085791335 -0.16815101 0.98800004 6424234
-0.090938799 -0.1664352 0.98800004 13158595
-0.087507136 -0.1664352 0.98800004 13816272
-0.085791335 -0.1664352 0.98800004 14802141
-0.087507136 -0.16471936 0.98800004 6424234
-0.085791335 -0.16386145 0.98800004 6424234
-0.085791335 -0.15185066 0.98800004 10184375
-0.085791335 -0.14841901 0.98800004 10184630
-0.085791335 -0.14584525 0.98800004 13880262
-0.088346541 -0.19390348 0.99100006 13618630
-0.087772846 -0.19103506 0.99100006 6424234
-0.086051837 -0.18931405 0.99100006 6424234
-0.087772846 -0.17554572 0.99100006 6424234
-0.086051837 -0.17554572 0.99100006 14999005
-0.087772846 -0.17296419 0.99100006 10251967
-0.084904492 -0.17325103 0.99100006 12755922
-0.087772846 -0.16952211 0.99100006 6424234
-0.086051837 -0.15661436 0.99100006 6424234
-0.085191324 -0.15403278 0.99100006 6424234
-0.08433082 -0.15145124 0.99100006 6424234
-0.086051837 -0.12047256 0.99100006 11390680
-0.086051837 -0.11875155 0.99100006 6424234
-0.086312339 -0.17262466 0.99400002 6424234
-0.085449226 -0.17089844 0.99400002 15394785
