# .PCD v0.7 - Point Cloud Data file format
VERSION 0.7
FIELDS x y z rgba
SIZE 4 4 4 4
TYPE F F F U
COUNT 1 1 1 1
WIDTH 557
HEIGHT 1
VIEWPOINT 0 0 0 1 0 0 0
POINTS 557
DATA ascii
-0.18111263 -0.16662361 0.92700005 14737109
-0.17804307 -0.16833161 0.93200004 15001049
-0.17927608 -0.16797039 0.93000007 14803159
-0.1545894 -0.17737098 0.93700004 2763562
-0.15214851 -0.17737098 0.93700004 2563877
-0.14889398 -0.17737098 0.93700004 2499082
-0.15214851 -0.17574374 0.93700004 2103841
-0.14889398 -0.1749301 0.93700004 2368536
-0.1464531 -0.1749301 0.93700004 2565927
-0.15133487 -0.17248924 0.93700004 2698013
-0.14889398 -0.17248924 0.93700004 2698014
-0.1464531 -0.17248924 0.93700004 2763303
-0.17737101 -0.16923468 0.93700004 15260883
-0.15214851 -0.17004833 0.93700004 2895134
-0.14889398 -0.17004833 0.93700004 2829344
-0.14563948 -0.17004833 0.93700004 3026213
-0.1811679 -0.16652261 0.93700004 14868950
-0.17818463 -0.16760744 0.93700004 15266266
-0.15214851 -0.16679381 0.93700004 2959905
-0.1491652 -0.16706502 0.93700004 2763807
-0.14563948 -0.16760744 0.93700004 2960937
-0.15296215 -0.16435292 0.93700004 3090986
-0.14610578 -0.17793886 0.94000006 2631722
-0.14365706 -0.17793886 0.94000006 2828852
-0.15671678 -0.17630643 0.94000006 1907742
-0.1545402 -0.17521811 0.94000006 2367519
-0.15181939 -0.17467393 0.94000006 2369307
-0.14528956 -0.17549017 0.94000006 2828073
-0.14284083 -0.17549019 0.94000006 2894635
-0.15671678 -0.17304149 0.94000006 2894371
-0.1545402 -0.17249733 0.94000006 2894369
-0.14528956 -0.17304149 0.94000006 2829349
-0.14284083 -0.17222525 0.94000006 3026722
-0.14039211 -0.17140901 0.94000006 3158311
-0.15508434 -0.1689603 0.94000006 3157028
-0.14284083 -0.1689603 0.94000006 3092773
-0.14039211 -0.1689603 0.94000006 3158318
-0.15508434 -0.1665116 0.94000006 3091493
-0.14855444 -0.1665116 0.94000006 2697767
-0.14610578 -0.1665116 0.94000006 2829099
-0.14284083 -0.1665116 0.94000006 2961194
-0.15426812 -0.16324665 0.94000006 3156776
-0.15100317 -0.16406289 0.94000006 2894379
-0.14855444 -0.16487914 0.94000006 2631980
-0.14583372 -0.16433498 0.94000006 2894895
-0.14365706 -0.16487914 0.94000006 3026992
-0.15426812 -0.16161422 0.94000006 3025193
-0.1423268 -0.17831746 0.94200003 2960432
-0.1611401 -0.17668155 0.94200003 2303526
-0.15814087 -0.17559092 0.94200009 2040094
-0.14069082 -0.17586356 0.94200003 3091756
-0.13960022 -0.17286435 0.94200009 3223849
-0.13905491 -0.16931978 0.94200003 3289389
-0.15705022 -0.16686587 0.94200003 3091493
-0.1554143 -0.16522996 0.94200003 3157286
-0.1423268 -0.16522996 0.94200003 3092779
-0.13987286 -0.16604792 0.94200003 3355178
-0.14805257 -0.16359399 0.94200003 2698801
-0.14314476 -0.16359399 0.94200003 3092786
-0.13905491 -0.16359399 0.94200003 3092527
-0.15459634 -0.1603221 0.94200003 2958380
-0.15132445 -0.16114008 0.94200003 3222317
-0.1472346 -0.16195808 0.94200003 3355706
-0.14559868 -0.16195808 0.94200003 3619128
-0.15377839 -0.15868619 0.94200003 3882029
-0.15214242 -0.15868619 0.94200003 4145452
-0.164115 -0.17724423 0.94500005 2763816
-0.13949774 -0.17724423 0.94500005 3223597
-0.16329443 -0.17560305 0.94500005 2763046
-0.16083269 -0.17560305 0.94500005 2499875
-0.13949774 -0.17560305 0.94500005 3223341
-0.16329443 -0.17396192 0.94500005 2894123
-0.16001213 -0.17314133 0.94500005 2894627
-0.15755038 -0.17232075 0.94500005 3025708
-0.16247389 -0.16985902 0.94500005 3157539
-0.16001213 -0.16985902 0.94500005 3092513
-0.15755038 -0.16985902 0.94500005 3092009
-0.13785663 -0.16985902 0.94500005 3224108
-0.16247389 -0.16739729 0.94500005 3222817
-0.16001213 -0.16657671 0.94500005 3157025
-0.15755038 -0.16575615 0.94500005 3157026
-0.13785663 -0.16739729 0.94500005 3355437
-0.16001213 -0.16411498 0.94500005 3091494
-0.15755038 -0.16411498 0.94500005 3157284
-0.14934462 -0.16247387 0.94500005 3092276
-0.14442119 -0.16247387 0.94500005 3618615
-0.14168595 -0.16302091 0.94500005 3355446
-0.13949774 -0.16247387 0.94500005 3288884
-0.14852406 -0.16083269 0.94500005 3751734
-0.14606239 -0.16083269 0.94500005 4146490
-0.13693616 -0.17818204 0.95000005 3224110
-0.17900693 -0.17488237 0.95000005 6519996
-0.17570725 -0.17488237 0.95000005 335933
-0.17213264 -0.17543231 0.95000005 1844010
-0.16975394 -0.17552319 0.94900006 3024926
-0.16710554 -0.17533736 0.94800007 2894100
-0.13844016 -0.17552319 0.94900006 3224109
-0.13693616 -0.17570728 0.95000005 3224110
-0.18313147 -0.17323251 0.95000005 14868441
-0.18148167 -0.17323251 0.95000005 13427421
-0.17860691 -0.17256215 0.94933337 9941955
-0.17561434 -0.17231727 0.94950002 3617112
-0.1724076 -0.17240758 0.95000005 2042157
-0.16993283 -0.17240758 0.95000005 3027238
-0.16710554 -0.17204461 0.94800007 3026980
-0.16408724 -0.17231902 0.94800013 3026735
-0.13829428 -0.1728678 0.94800007 3224105
-0.13603918 -0.17231728 0.94950002 3224105
-0.17860691 -0.16871369 0.94933337 12182237
-0.17561434 -0.16901848 0.94950008 4408691
-0.1724076 -0.16910791 0.95000005 2040886
-0.16993283 -0.16993284 0.95000005 3092772
-0.16710554 -0.16957508 0.94800007 3027232
-0.16463602 -0.16957508 0.94800007 3092517
-0.13574019 -0.16926365 0.94933337 3093035
-0.13363647 -0.16910791 0.95000005 2961446
-0.17900693 -0.16663317 0.95000005 12903888
-0.1724076 -0.16663317 0.95000005 1777466
-0.16975394 -0.16728094 0.94900006 3026733
-0.16710554 -0.16710554 0.94800007 2960929
-0.16408724 -0.16683117 0.94800013 3091746
-0.13829428 -0.16628237 0.94800007 3224109
-0.13619404 -0.16694808 0.94866675 3093033
-0.13363647 -0.16663317 0.95000005 3026208
-0.17818201 -0.16415843 0.95000005 10539997
-0.17570725 -0.16415843 0.95000005 4409709
-0.1724076 -0.16415843 0.95000005 1382446
-0.16910791 -0.16415843 0.95000005 2895390
-0.16628234 -0.16381282 0.94800007 2829600
-0.16381285 -0.16381282 0.94800007 2960422
-0.16052011 -0.16298965 0.94800007 2829098
-0.15805055 -0.16298965 0.94800007 2894630
-0.13829428 -0.16381282 0.94800007 3158062
-0.13629012 -0.16431762 0.94933337 3158317
-0.18109961 -0.15969694 0.94800007 15131865
-0.17848073 -0.16035919 0.94866675 13298149
-0.17570725 -0.16085877 0.95000005 6847384
-0.1724076 -0.16085875 0.95000005 856374
-0.16910791 -0.16085877 0.95000005 2698277
-0.16663314 -0.16085875 0.95000005 2565930
-0.16415843 -0.16085875 0.95000005 2893102
-0.16085875 -0.16168366 0.95000005 2565935
-0.15838398 -0.16168366 0.95000005 2697776
-0.14487967 -0.16134328 0.94800007 4146745
-0.14271057 -0.16168366 0.95000005 3948858
-0.14023583 -0.16168366 0.95000005 3554106
-0.18177573 -0.15761177 0.94866675 15000282
-0.17900693 -0.15755908 0.95000005 14281186
-0.1755223 -0.1573941 0.949 8426950
-0.1724076 -0.1575591 0.95000005 855868
-0.16910791 -0.158384 0.95000005 2369322
-0.16663314 -0.158384 0.95000005 2698030
-0.17451414 -0.15475784 0.94800007 7514341
-0.17222525 -0.15492108 0.94900006 1588628
-0.13571356 -0.17708963 0.95300007 3289650
-0.13571356 -0.17543462 0.95300007 3289901
-0.13405849 -0.17295203 0.95300007 3223850
-0.13240346 -0.16964194 0.95300007 2960931
-0.17708965 -0.16715939 0.95300007 4876415
-0.17543457 -0.16715939 0.95300007 3080497
-0.13323098 -0.16633186 0.95300007 3092000
-0.13902368 -0.16219424 0.95300007 3356219
-0.13654107 -0.16302177 0.95300007 3158325
-0.16219424 -0.16053922 0.95300007 3221554
-0.1456438 -0.16053922 0.95300007 4607548
-0.14398879 -0.16053922 0.95300007 4608059
-0.17046946 -0.15722914 0.95300007 2431266
-0.16550434 -0.15888415 0.95300007 3091499
-0.13433984 -0.17746128 0.95500004 3355183
-0.13351059 -0.17497352 0.95500004 3223853
-0.13268134 -0.17248571 0.95500004 3157546
-0.13102286 -0.16999796 0.95500004 3025957
-0.13268134 -0.16585167 0.95500004 3092258
-0.13102286 -0.16668093 0.95500004 2960418
-0.13599838 -0.16253462 0.95500004 3092791
-0.13351059 -0.16419317 0.95500004 3026476
-0.16419318 -0.1592176 0.95500004 3550001
-0.16087614 -0.16087614 0.95500004 3286326
-0.14263241 -0.16087614 0.95500004 4343867
-0.14014468 -0.16087614 0.95500004 4013892
-0.13765688 -0.16087614 0.95500004 3815746
-0.16916873 -0.15755911 0.95500004 2893366
-0.16999796 -0.15590057 0.95500004 2957428
-0.13309814 -0.17635505 0.95800006 3223853
-0.13087985 -0.17524588 0.95800006 3092525
-0.13032526 -0.172473 0.95800006 3092009
-0.12977067 -0.16886826 0.95800006 2959910
-0.12810697 -0.16886826 0.95800006 2959910
-0.12977067 -0.16637266 0.95800006 2894889
-0.13392998 -0.1630452 0.95800006 2960951
-0.13143444 -0.16470896 0.95800006 2895404
-0.15971774 -0.16138151 0.95800006 3486267
-0.15805404 -0.16138151 0.95800006 3684404
-0.1364256 -0.16138151 0.95800006 3684670
-0.13017705 -0.17690732 0.96100003 3158570
-0.12795182 -0.17579469 0.96100008 3223858
-0.12795183 -0.1724568 0.96100008 3222817
-0.13017705 -0.16522475 0.96100003 2829613
-0.12850814 -0.1660592 0.96100003 2764075
-0.13101155 -0.16355579 0.96100003 2764084
-0.16355579 -0.16021791 0.96100003 3811896
-0.13935623 -0.16021791 0.96100003 4474181
-0.13574016 -0.16077425 0.96100008 3948610
-0.13351494 -0.16188689 0.96100003 3486533
-0.13184603 -0.16188689 0.96100003 3354175
-0.16856259 -0.15688004 0.96100003 4146012
-0.12710313 -0.17727549 0.96300006 3224109
-0.12543075 -0.17727549 0.96300006 3223848
-0.12543075 -0.17560305 0.96300006 3158318
-0.12710313 -0.17393063 0.96300006 3223337
-0.12543075 -0.17309442 0.96300006 3091749
-0.12710313 -0.16974962 0.96300006 3026215
-0.12543075 -0.17058581 0.96300006 3222825
-0.12710313 -0.16724099 0.96300006 2960940
-0.13044797 -0.16222379 0.96300006 3091769
-0.12877558 -0.16389617 0.96300006 2567472
-0.16222379 -0.16055135 0.96300006 4141627
-0.16055134 -0.16055135 0.96300006 4274751
-0.15804276 -0.16055135 0.96300006 4605757
-0.16891338 -0.15887898 0.96300006 3427374
-0.16612609 -0.1583215 0.96300006 4083507
-0.16389617 -0.15804276 0.96300006 4674112
-0.12414391 -0.17782775 0.96600002 3354659
-0.12414391 -0.1753113 0.96600002 3157542
-0.12414391 -0.17195605 0.96600002 3156782
-0.1258215 -0.16943963 0.96600002 3157808
-0.1274991 -0.16608439 0.96600002 2895404
-0.1258215 -0.1669232 0.96600002 3026728
-0.12917677 -0.16272916 0.96600002 2894388
-0.1274991 -0.16440675 0.96600002 2764334
-0.16272916 -0.15937392 0.96600002 4740417
-0.14259771 -0.16105153 0.96600002 4672071
-0.13672602 -0.15937392 0.96600002 4673095
-0.13365041 -0.16049233 0.96600002 4146001
-0.13085434 -0.16105153 0.96600002 3551549
-0.1669232 -0.15685749 0.96600002 4729164
-0.16356796 -0.15685749 0.96600002 5068099
-0.12284658 -0.17585573 0.96900004 3288616
-0.12284658 -0.17249008 0.96900004 3222315
-0.12452945 -0.16912442 0.96900004 3157295
-0.12284658 -0.16912442 0.96900004 3222571
-0.12452945 -0.16660018 0.96900004 3091745
-0.12284658 -0.16660018 0.96900004 3222820
-0.15397894 -0.16323452 0.96900004 4344623
-0.1514547 -0.16323452 0.96900004 4541755
-0.1497719 -0.16323452 0.96900004 4672571
-0.12677318 -0.16379546 0.96900004 2959917
-0.12452945 -0.16491733 0.96900004 3091751
-0.12284658 -0.16491733 0.96900004 3222826
-0.16155165 -0.15986887 0.96900004 4805188
-0.14893046 -0.16155167 0.96900004 5132607
-0.14556479 -0.16155167 0.96900004 5001285
-0.12957793 -0.16155167 0.96900004 3222841
-0.12789506 -0.16155167 0.96900004 3090997
-0.16912441 -0.15650322 0.96900004 6369398
-0.16323452 -0.15650322 0.96900004 4536381
-0.16155165 -0.15818602 0.96900004 5395515
-0.16912441 -0.15482037 0.96900004 8624556
-0.1666002 -0.15482037 0.96900004 5797270
-0.16491733 -0.15482037 0.96900004 10408073
-0.12153889 -0.17724422 0.97200006 3288876
-0.11912838 -0.17742656 0.97300005 3223599
-0.12153889 -0.17555614 0.97200006 3157546
-0.11912838 -0.17573676 0.97300005 3092013
-0.12153889 -0.17302409 0.97200006 3092008
-0.11985082 -0.17302409 0.97200006 2960680
-0.1210584 -0.1700463 0.97266674 3157287
-0.11985082 -0.16880399 0.97200006 3222567
-0.12153889 -0.16627194 0.97200006 3091754
-0.11936919 -0.16666791 0.97266674 3091497
-0.15731074 -0.16238527 0.97400004 5001020
-0.15445566 -0.16205184 0.97200006 5067325
-0.15223619 -0.16238527 0.97400004 5132866
-0.12660301 -0.16205184 0.97200006 3025459
-0.12407095 -0.16289586 0.97200006 3090993
-0.12114178 -0.16340065 0.97333336 3026227
-0.16036381 -0.16036382 0.97200006 4935752
-0.15799326 -0.16052881 0.97300005 5066573
-0.15477347 -0.16069379 0.97400004 5132365
-0.15223619 -0.16069379 0.97400004 5198154
-0.14800742 -0.15984802 0.97400004 5329220
-0.14517142 -0.16036382 0.97200006 5132372
-0.14377864 -0.16069379 0.97400004 4934990
-0.1403956 -0.16069379 0.97400004 4737092
-0.13335519 -0.16036382 0.97200006 4543567
-0.13082311 -0.16036382 0.97200006 4346175
-0.12799117 -0.16012995 0.9740001 4410941
-0.16205183 -0.15698774 0.97200006 4275251
-0.16036381 -0.15783176 0.97200006 4737342
-0.15783176 -0.15867576 0.97200006 5329481
-0.15461457 -0.15799326 0.97300005 7835753
-0.15156817 -0.15776578 0.97333336 8693362
-0.14885317 -0.15731077 0.97400004 4804671
-0.14573412 -0.15755042 0.97200006 8693109
-0.1434834 -0.15698774 0.97200006 10408073
-0.1392633 -0.15783176 0.97200006 7769958
-0.13588721 -0.15783176 0.97200006 5329739
-0.13335519 -0.15783176 0.97200006 5264460
-0.13082311 -0.15783176 0.97200006 5329994
-0.16289586 -0.15529968 0.97200006 7047814
-0.16069376 -0.15561922 0.97400004 10408073
-0.14517142 -0.15445568 0.97200006 7306845
-0.1426394 -0.15445568 0.97200006 8759666
-0.11763951 -0.17532808 0.97700012 3091238
-0.11792229 -0.17221743 0.97700006 3091234
-0.11792229 -0.16967233 0.97700006 3550756
-0.11763951 -0.16684447 0.97700012 3157798
-0.11877064 -0.16458218 0.97700006 3092013
-0.1510084 -0.159492 0.97700006 5263938
-0.15949203 -0.1577953 0.97700006 4014147
-0.15779527 -0.1577953 0.97700006 4014150
-0.1527051 -0.15609854 0.97700006 10408073
-0.1527051 -0.15440185 0.97700006 10408073
-0.11573146 -0.16934237 0.98000002 3157537
-0.11743343 -0.16508755 0.98000002 3092772
-0.11573146 -0.1659385 0.98000002 2895900
-0.12083725 -0.1633856 0.98000002 3157560
-0.12594309 -0.16168369 0.98000002 3948597
-0.15998176 -0.15657787 0.98000002 10408073
-0.15742883 -0.15657787 0.98000002 10408073
-0.1548759 -0.15657787 0.98000002 3091308
-0.15147209 -0.15657787 0.98000002 10408073
-0.14891917 -0.15657787 0.98000002 7308130
-0.15998176 -0.15487595 0.98000002 7959503
-0.15742883 -0.15487595 0.98000002 7230638
-0.15402496 -0.15402497 0.98000002 8023716
-0.15147209 -0.15402497 0.98000002 8022388
-0.14891917 -0.15402497 0.98000002 6577760
-0.11523218 -0.17498219 0.98300004 3090972
-0.11523218 -0.17242149 0.98300004 3090979
-0.11437862 -0.16986077 0.98300004 2895398
-0.11437862 -0.16644648 0.98300004 2698786
-0.15193579 -0.16217864 0.98300004 5198149
-0.14340007 -0.16217864 0.98300004 4868680
-0.12206075 -0.16217864 0.98300004 3683138
-0.11864647 -0.16388576 0.98300004 3157555
-0.11523218 -0.16388576 0.98300004 2764329
-0.11290068 -0.17533821 0.98500007 3156777
-0.11204538 -0.17191698 0.98500007 2697769
-0.11204538 -0.16935107 0.98500007 2633515
-0.11204538 -0.16678514 0.98500007 2764585
-0.12487501 -0.16250859 0.98500007 3880507
-0.11974317 -0.16250859 0.98500007 3551298
-0.11152874 -0.17587224 0.98800004 3222313
-0.10981293 -0.17244059 0.98800004 2828578
-0.10981293 -0.16900894 0.98800004 2829864
-0.10981293 -0.1664352 0.98800004 2960941
-0.11839207 -0.16300355 0.98800004 3418683
-0.1166762 -0.16300355 0.98800004 3156533
-0.11324453 -0.16471936 0.98800004 2764588
-0.14470142 -0.16071579 0.98800009 5197385
-0.1304028 -0.1595719 0.98800004 5329999
-0.1278291 -0.16042981 0.98800004 5000520
-0.12439744 -0.16042981 0.98800004 4803141
-0.12182367 -0.16042981 0.98800004 4605505
-0.1304028 -0.15785606 0.98800004 10408073
-0.1278291 -0.15785606 0.98800004 7836012
-0.12439744 -0.15785606 0.98800004 10408073
-0.12182367 -0.15785606 0.98800004 10408073
-0.10928583 -0.17554572 0.99100006 3025193
-0.1084253 -0.17296419 0.99100006 3025451
-0.1084253 -0.16952211 0.99100006 3026219
-0.11186738 -0.16521952 0.99100006 2895660
-0.10899898 -0.16579321 0.99100006 3157297
-0.11530948 -0.16349849 0.99100006 2894387
-0.1135884 -0.16349849 0.99100006 2960689
-0.12047257 -0.16091694 0.99100006 4342590
-0.11875156 -0.16177744 0.99100006 3682620
-0.12907775 -0.15661436 0.99100006 10408073
-0.12735674 -0.15661436 0.99100006 10408073
-0.12477516 -0.15661436 0.99100006 10408073
-0.12219358 -0.15661436 0.99100006 10408073
-0.10702731 -0.17521404 0.99400002 3091507
-0.10702731 -0.17262466 0.99400002 3091504
-0.10616416 -0.1700353 0.99400002 3092012
-0.10616416 -0.16744594 0.99400002 3091768
-0.11738476 -0.16226719 0.99400002 3419194
-0.11220603 -0.16399346 0.99400002 3025967
-0.11911105 -0.16054097 0.99400002 4477502
-0.12083727 -0.15795158 0.99400002 5592136
-0.12601599 -0.1553622 0.99400002 5329217
-0.12428978 -0.1553622 0.99400002 5394504
-0.12256349 -0.1553622 0.99400002 5460044
-0.10561883 -0.17574283 0.99700004 3157549
-0.1038874 -0.17660856 0.99700004 3157800
-0.10561883 -0.17314565 0.99700004 3092012
-0.1038874 -0.17227994 0.99700004 3092264
-0.1038874 -0.16968274 0.99700004 3092777
-0.10648458 -0.16621985 0.99700004 3157300
-0.11600761 -0.16275692 0.99700004 3223095
-0.1099475 -0.1644884 0.99700004 3157038
-0.11947054 -0.15929401 0.99700004 5329475
-0.10333169 -0.17540334 1 3091751
-0.10246336 -0.17279834 1 3092525
-0.10304224 -0.16903555 1 3026720
-0.10420001 -0.16671999 1 3026473
-0.11461998 -0.16324666 1 3223861
-0.106805 -0.16498336 1 3092016
-0.11809332 -0.16151002 1 4279615
-0.11983003 -0.15803669 1 10408073
-0.10044822 -0.1747683 1.003 3092269
-0.10015791 -0.1724458 1.003 2895669
-0.10015791 -0.16983299 1.003 2830102
-0.10335137 -0.16605893 1.003 3026469
-0.10044822 -0.16663955 1.003 2961437
-0.11235106 -0.16373642 1.003 3158328
-0.10973822 -0.16373642 1.003 3157819
-0.10712542 -0.16373642 1.003 3157561
-0.1045126 -0.16373642 1.003 3092530
-0.099583961 -0.17645575 1.006 3289384
-0.096963301 -0.17470866 1.006 3223596
-0.097254477 -0.17179686 1.006 3027246
-0.096963301 -0.16946743 1.006 3093031
-0.099583961 -0.16597326 1.006 3027241
-0.097254477 -0.16713797 1.006 3158571
-0.11705482 -0.16247909 1.006 4147260
-0.10831939 -0.16247909 1.006 3551556
-0.10657226 -0.16247909 1.006 3419711
-0.10366049 -0.16306144 1.006 3157039
-0.10074866 -0.16364379 1.006 3092000
-0.096280806 -0.17330545 1.008 3223858
-0.09453027 -0.16980435 1.008 3158316
-0.096280806 -0.16630322 1.008 3289645
-0.11553694 -0.1628021 1.008 3949113
-0.11291113 -0.1628021 1.008 3750468
-0.11028527 -0.1628021 1.008 3683654
-0.09978193 -0.1628021 1.008 3222053
-0.097156078 -0.16455263 1.008 3288876
-0.11903807 -0.16105153 1.008 5198658
-0.10853473 -0.16105153 1.008 3946319
-0.10590887 -0.16105153 1.008 3550784
-0.10328307 -0.16105153 1.008 3286833
-0.10153247 -0.16105153 1.008 3285800
-0.094811611 -0.17557698 1.011 3289901
-0.094811611 -0.17294335 1.011 3158576
-0.093933702 -0.16943182 1.011 3092518
-0.094811611 -0.16592027 1.011 3355177
-0.09744522 -0.16328663 1.011 3222827
-0.11763661 -0.16153085 1.011 5065537
-0.1106135 -0.16153085 1.011 4275787
-0.10710195 -0.15977509 1.011 4478027
-0.10007891 -0.16153085 1.011 3352108
-0.098323092 -0.16153085 1.011 3287345
-0.093331926 -0.17257603 1.0140001 3158567
-0.093331926 -0.16905408 1.0140001 3092517
-0.093331926 -0.16729313 1.0140001 3289642
-0.11622465 -0.16201015 1.0140001 4737857
-0.11270275 -0.16201015 1.0140001 4343367
-0.096853904 -0.16201015 1.0140001 3288114
-0.095092952 -0.16377117 1.0140001 3354655
-0.11270275 -0.16024922 1.0140001 10408073
-0.11006126 -0.16024922 1.0140001 10408073
-0.10565881 -0.16024922 1.0140001 10408073
-0.10301734 -0.16024922 1.0140001 4214326
-0.10037588 -0.16024922 1.0140001 4082740
-0.098614857 -0.16024922 1.0140001 3948851
-0.093608059 -0.17485282 1.0170001 3224111
-0.091841891 -0.17485282 1.0170001 3223596
-0.091841891 -0.17220353 1.0170001 3289370
-0.091841891 -0.16955423 1.0170001 3223582
-0.093608059 -0.16602185 1.0170001 3486248
-0.091841891 -0.16690496 1.0170001 3421225
-0.11480235 -0.16248947 1.0170001 4474948
-0.094491169 -0.16337258 1.0170001 3354669
-0.11568543 -0.16072331 1.0170001 7638632
-0.097140454 -0.16072331 1.0170001 10408073
-0.095374286 -0.16072331 1.0170001 10408073
-0.1095038 -0.15895709 1.0170001 10408073
-0.10685448 -0.15895709 1.0170001 10408073
-0.10332213 -0.15895709 1.0170001 10408073
-0.10067285 -0.15895709 1.0170001 10408073
-0.097140454 -0.15895709 1.0170001 4539710
-0.090341374 -0.17536862 1.0200001 3290925
-0.090341374 -0.17271149 1.0200001 3486239
-0.090341374 -0.16916871 1.0200001 3355428
-0.090341374 -0.16651161 1.0200001 3486506
-0.093884192 -0.1629688 1.0200001 3420469
-0.091227099 -0.16385451 1.0200001 3420722
-0.12045519 -0.16119742 1.0200001 10408073
-0.11868382 -0.16119742 1.0200001 10408073
-0.1124839 -0.159426 1.0200001 10408073
-0.099198379 -0.159426 1.0200001 4672831
-0.09476991 -0.16031171 1.0200001 4077376
-0.091227099 -0.16031171 1.0200001 5397585
-0.088570006 -0.159426 1.0200001 10408073
-0.086798623 -0.159426 1.0200001 10408073
-0.1089411 -0.15765458 1.0200001 5263948
-0.106284 -0.15765458 1.0200001 5264716
-0.10451263 -0.15765458 1.0200001 5395785
-0.10096981 -0.15765458 1.0200001 10408073
-0.097427003 -0.15765458 1.0200001 10408073
-0.091227092 -0.15765458 1.0200001 6588259
-0.088570006 -0.15765458 1.0200001 10408073
-0.088238314 -0.17469999 1.023 2436132
-0.087942213 -0.17233118 1.023 2896411
-0.088238314 -0.16937017 1.023 3617572
-0.088830501 -0.16611305 1.023 3617578
-0.087942213 -0.16344813 1.023 3813936
-0.12436271 -0.1598949 1.023 5461072
-0.12169779 -0.1598949 1.023 10408073
-0.11814456 -0.1598949 1.023 10408073
-0.11547965 -0.1598949 1.023 5263690
-0.094160318 -0.1598949 1.023 10408073
-0.087942213 -0.16167153 1.023 3682870
-0.085277274 -0.1598949 1.023 2491173
-0.1270276 -0.15811828 1.023 10408073
-0.099490136 -0.15811828 1.023 4738379
-0.097713552 -0.15634169 1.023 10408073
-0.095344752 -0.15693389 1.023 3687506
-0.099490136 -0.15456505 1.023 4727823
-0.097713552 -0.15456505 1.023 6226249
-0.085527346 -0.17461835 1.026 3801350
-0.082854629 -0.17461835 1.026 8413510
-0.087309211 -0.17105471 1.026 3814426
-0.085527346 -0.17194563 1.026 2952462
-0.082854629 -0.17194563 1.026 5650486
-0.085527346 -0.16927293 1.026 2299924
-0.082854629 -0.16927293 1.026 4138274
-0.087309211 -0.16660018 1.026 3814437
-0.085527346 -0.16660018 1.026 1974561
-0.083151609 -0.16689715 1.026 2429222
-0.085527346 -0.16303656 1.026 2170402
-0.083745554 -0.16303656 1.026 524606
-0.1247274 -0.15858196 1.026 5001044
-0.12205468 -0.15858196 1.026 10408073
-0.11849102 -0.15858196 1.026 10408073
-0.11492741 -0.15858196 1.026 7835755
-0.094436452 -0.15858196 1.026 10408073
-0.080494501 -0.16993286 1.0300001 13941120
-0.082283244 -0.16635533 1.0300001 7026219
-0.11269229 -0.15920022 1.0300001 5461069
-0.10374846 -0.15920022 1.0300001 10408073
-0.1270024 -0.15741147 1.0300001 10408073
-0.1243193 -0.15741147 1.0300001 4802381
-0.12163612 -0.15741147 1.0300001 5263436
-0.11895298 -0.15741147 1.0300001 5460551
-0.11626983 -0.15741147 1.0300001 5461060
-0.10911474 -0.15741147 1.0300001 10408073
-0.10643163 -0.15741147 1.0300001 10408073
-0.10374846 -0.15741147 1.0300001 10408073
-0.10106531 -0.15741147 1.0300001 7572315
-0.1243193 -0.15472832 1.0300001 8360056
-0.10911474 -0.15562269 1.0300001 10408073
-0.10643163 -0.15562269 1.0300001 3490364
-0.10374846 -0.15562269 1.0300001 3354421
-0.10195971 -0.15562269 1.0300001 3284514
-0.096593425 -0.15562269 1.0300001 10408073
-0.12109342 -0.15607595 1.033 7573352
-0.11840244 -0.15607595 1.033 10408073
-0.11481453 -0.15786995 1.033 5461315
-0.11212355 -0.15786995 1.033 10408073
-0.12109342 -0.154282 1.033 3688335
-0.11604756 -0.15652923 1.036 7244642
-0.11244917 -0.15652923 1.036 7310947
-0.1187463 -0.15473007 1.036 3028100
-0.11728579 -0.15517813 1.039 2897533
-0.11581486 -0.15562618 1.0420001 2963574
