# .PCD v0.7 - Point Cloud Data file format
VERSION 0.7
FIELDS x y z rgba
SIZE 4 4 4 4
TYPE F F F U
COUNT 1 1 1 1
WIDTH 605
HEIGHT 1
VIEWPOINT 0 0 0 1 0 0 0
POINTS 605
DATA ascii
-0.16277775 -0.16814406 1.0300001 2370083
-0.16277775 -0.16635533 1.0300001 2698791
-0.16277775 -0.16367216 1.0300001 3159088
-0.16009463 -0.1627778 1.0300001 3158065
-0.16337402 -0.16039275 1.0300001 3684403
-0.16009463 -0.16009462 1.0300001 3355171
-0.15741146 -0.16009462 1.0300001 3355452
-0.16277775 -0.15741147 1.0300001 2962736
-0.16009463 -0.15741147 1.0300001 3290151
-0.16504587 -0.16863382 1.033 2959669
-0.16056094 -0.16863382 1.033 2960406
-0.15786994 -0.16863382 1.033 3157541
-0.16863385 -0.16683985 1.033 3153998
-0.16594285 -0.16594285 1.033 3353910
-0.16056094 -0.16594285 1.033 3026469
-0.15786994 -0.16594285 1.033 3092010
-0.16594285 -0.16325191 1.033 3949367
-0.15697296 -0.16325191 1.033 3223088
-0.16594285 -0.16056091 1.033 4277313
-0.15607598 -0.16056091 1.033 3421238
-0.16564386 -0.15727195 1.033 3882556
-0.16325185 -0.15607595 1.033 3159860
-0.16056094 -0.15607595 1.033 3289648
-0.15727195 -0.15727195 1.033 3487027
-0.16325185 -0.154282 1.033 3421754
-0.15966395 -0.154282 1.033 3355705
-0.15966395 -0.15248799 1.033 3882050
-0.16732435 -0.16912355 1.036 3616068
-0.15652926 -0.16912355 1.036 3223337
-0.15473004 -0.16912355 1.036 3355181
-0.17002316 -0.16642478 1.036 2629193
-0.15652926 -0.16642478 1.036 3157550
-0.15473004 -0.16642478 1.036 3158067
-0.15293087 -0.16552517 1.036 3027500
-0.16912358 -0.16372602 1.036 3687740
-0.15473004 -0.16372602 1.036 3223601
-0.15293087 -0.16372602 1.036 3158568
-0.16912358 -0.16192681 1.036 4738877
-0.16732435 -0.16012758 1.036 4540738
-0.15473004 -0.16102719 1.036 3355696
-0.15233116 -0.16072732 1.036 3355183
-0.16912358 -0.15832844 1.036 4805437
-0.16732435 -0.15652923 1.036 4275514
-0.15652926 -0.15652923 1.036 3552550
-0.15473004 -0.15742883 1.036 3486497
-0.15203129 -0.15832844 1.036 3486253
-0.16552518 -0.15473007 1.036 3816253
-0.16192681 -0.15473007 1.036 3355190
-0.15832843 -0.15473007 1.036 3421756
-0.15832843 -0.15203127 1.036 4276553
-0.15156935 -0.16961329 1.039 3485994
-0.14976491 -0.16961329 1.039 3485742
-0.17231986 -0.16690671 1.039 2760519
-0.15337372 -0.16780892 1.039 3289905
-0.15156935 -0.16690671 1.039 3355178
-0.14916345 -0.16660598 1.039 3486257
-0.17141768 -0.1623957 1.039 4735795
-0.15156935 -0.16329792 1.039 3355172
-0.14886272 -0.16329792 1.039 3420461
-0.1461561 -0.16329792 1.039 3289389
-0.17141768 -0.16059129 1.039 4998706
-0.16961332 -0.16059129 1.039 4736830
-0.14886272 -0.16059129 1.039 3419956
-0.1461561 -0.16059129 1.039 3485232
-0.17141768 -0.15878692 1.039 5261615
-0.16961332 -0.1569825 1.039 4672829
-0.15337372 -0.1569825 1.039 3486245
-0.15156935 -0.1569825 1.039 3420719
-0.14886272 -0.15788472 1.039 3355186
-0.14525393 -0.1578847 1.039 3419438
-0.16780888 -0.15517813 1.039 4276285
-0.16329789 -0.1533737 1.039 3683902
-0.15698253 -0.15517813 1.039 3552565
-0.15427591 -0.15517813 1.039 3486768
-0.15156935 -0.15517813 1.039 3355959
-0.14976491 -0.15517813 1.039 3290164
-0.15878691 -0.14976491 1.039 4867666
-0.17824626 -0.16829345 1.0420001 10535361
-0.17553186 -0.16829345 1.0420001 4807297
-0.14838776 -0.16829345 1.0420001 3420728
-0.14567333 -0.16829345 1.0420001 3289644
-0.14205414 -0.16829345 1.0420001 3355172
-0.13933973 -0.16829345 1.0420001 3224614
-0.18096067 -0.16648382 1.0420001 14610661
-0.17824626 -0.16648382 1.0420001 11254446
-0.17553186 -0.16648382 1.0420001 3485036
-0.17372222 -0.16648382 1.0420001 2624829
-0.14567333 -0.16648382 1.0420001 3355180
-0.14205414 -0.16648382 1.0420001 3486254
-0.13933973 -0.16648382 1.0420001 3289901
-0.13753009 -0.16648382 1.0420001 3289899
-0.17824626 -0.1628646 1.0420001 6717882
-0.17553186 -0.1628646 1.0420001 930923
-0.17281744 -0.16376942 1.0420001 3029551
-0.14476854 -0.16376942 1.0420001 3223595
-0.14205414 -0.16376941 1.0420001 3223601
-0.13933973 -0.16376942 1.0420001 3223344
-0.13753009 -0.16376942 1.0420001 3223084
-0.17372222 -0.16015019 1.0420001 3553316
-0.14476854 -0.16105497 1.0420001 3288362
-0.14205414 -0.16015019 1.0420001 3157536
-0.13933973 -0.16105497 1.0420001 3156769
-0.17281744 -0.15743577 1.0420001 4274211
-0.14205414 -0.15743577 1.0420001 3091758
-0.17010307 -0.15562618 1.0420001 4606014
-0.16648383 -0.15381655 1.0420001 3947587
-0.1574358 -0.15381655 1.0420001 4144196
-0.15472135 -0.15381655 1.0420001 4078656
-0.15110217 -0.15381655 1.0420001 3881531
-0.14838776 -0.15472136 1.0420001 3552562
-0.14567333 -0.15562618 1.0420001 3289135
-0.14205414 -0.15562618 1.0420001 3027249
-0.15110217 -0.15200698 1.0420001 4473917
-0.13701865 -0.16877797 1.0450001 3289898
-0.13429648 -0.16877797 1.0450001 3355182
-0.1751298 -0.16514833 1.0450001 2428994
-0.13611126 -0.16605574 1.0450001 3289394
-0.13429648 -0.16605574 1.0450001 3223608
-0.13611126 -0.16333351 1.0450001 3222576
-0.13429648 -0.16333351 1.0450001 3091509
-0.17785203 -0.15970388 1.0450001 9356498
-0.17603724 -0.16061127 1.0450001 2049147
-0.1397409 -0.15970388 1.0450001 3092264
-0.13701865 -0.16061127 1.0450001 3091501
-0.13429648 -0.16061127 1.0450001 3092013
-0.17603724 -0.15788902 1.0450001 1845620
-0.17240758 -0.15607424 1.0450001 4999215
-0.1397409 -0.15788902 1.0450001 2829871
-0.13701865 -0.15788902 1.0450001 3026991
-0.13429648 -0.15788902 1.0450001 3027244
-0.16877794 -0.15425941 1.0450001 4211777
-0.14700013 -0.15425941 1.0450001 3749681
-0.14518534 -0.15425941 1.0450001 3683889
-0.14337055 -0.15425941 1.0450001 3683891
-0.15728413 -0.15183967 1.0450001 4802376
-0.15425943 -0.15244462 1.0450001 4671297
-0.14790756 -0.15244462 1.0450001 4210745
-0.13286193 -0.1692625 1.0480001 3420461
-0.1301319 -0.1692625 1.0480001 3420459
-0.18018267 -0.16562246 1.0480001 11252659
-0.17836261 -0.16562246 1.0480001 6713219
-0.13286193 -0.16653246 1.0480001 3158067
-0.1301319 -0.16653246 1.0480001 3223341
-0.13286193 -0.1638024 1.0480001 3026479
-0.1301319 -0.1638024 1.0480001 3157545
-0.18382268 -0.16016236 1.0480001 15394789
-0.18109266 -0.16107236 1.0480001 14609891
-0.17836261 -0.16198236 1.0480001 7044310
-0.13286193 -0.16107236 1.0480001 3092776
-0.1301319 -0.16107236 1.0480001 3092262
-0.17836261 -0.1574323 1.0480001 8764110
-0.17563257 -0.1565223 1.0480001 2239308
-0.13923204 -0.1565223 1.0480001 2699827
-0.13650201 -0.1565223 1.0480001 3092787
-0.13346863 -0.15712897 1.0480001 2830380
-0.1301319 -0.1583423 1.0480001 3026987
-0.17199254 -0.15470225 1.0480001 4342585
-0.1656224 -0.15288225 1.0480001 3947845
-0.1638024 -0.15288225 1.0480001 4144707
-0.1619824 -0.15288225 1.0480001 4407880
-0.12788814 -0.16808155 1.052 3289386
-0.12788814 -0.16625459 1.052 3223339
-0.12727916 -0.16320962 1.052 3092009
-0.12697467 -0.16077366 1.052 2961196
-0.18452428 -0.15894666 1.052 15460326
-0.18178387 -0.15803319 1.052 15792357
-0.13062859 -0.15711971 1.052 2960422
-0.12697467 -0.15803319 1.052 3026225
-0.1808704 -0.15529272 1.052 15924960
-0.17812991 -0.15437925 1.052 5999274
-0.17538941 -0.15529272 1.052 3294503
-0.172649 -0.15346578 1.052 3946292
-0.16899505 -0.15346578 1.052 4144449
-0.14524439 -0.15346578 1.052 4144953
-0.14250392 -0.15529272 1.052 3486773
-0.14067696 -0.15529272 1.052 3289910
-0.15711968 -0.15163878 1.052 4934471
-0.15437926 -0.15163878 1.052 4803903
-0.12642068 -0.16856088 1.0550001 3289639
-0.12458845 -0.16856088 1.0550001 3224356
-0.12184019 -0.16856088 1.0550001 3223853
-0.12642068 -0.16672871 1.0550001 3223844
-0.12458845 -0.16672871 1.0550001 3223838
-0.12184019 -0.16672871 1.0550001 3158061
-0.11909192 -0.16672871 1.0550001 3156529
-0.12642068 -0.1648965 1.0550001 3157286
-0.12458845 -0.16398039 1.0550001 3091750
-0.12184019 -0.16398039 1.0550001 3092014
-0.11909192 -0.16398039 1.0550001 3025713
-0.12458845 -0.16031605 1.0550001 3026733
-0.12184019 -0.16031604 1.0550001 3026225
-0.11909192 -0.16123214 1.0550001 2894898
-0.12458845 -0.15756777 1.0550001 3156011
-0.17588958 -0.15390342 1.0550001 3476789
-0.14199421 -0.15390342 1.0550001 3948093
-0.1392459 -0.15481949 1.0550001 3684153
-0.13649768 -0.15481949 1.0550001 3683129
-0.13374938 -0.15481949 1.0550001 3420461
-0.1310011 -0.15481949 1.0550001 3288361
-0.12733677 -0.15573557 1.0550001 3287349
-0.18138617 -0.15023905 1.0550001 16120041
-0.17863789 -0.15115513 1.0550001 8565959
-0.17527887 -0.1514605 1.0550001 3086678
-0.17222527 -0.15207121 1.0550001 3024170
-0.17039305 -0.15207121 1.0550001 4010554
-0.15481952 -0.15023905 1.0550001 5066303
-0.18138617 -0.14840683 1.0550001 15987691
-0.17863789 -0.14840683 1.0550001 11588841
-0.17588958 -0.14840683 1.0550001 5199310
-0.11943057 -0.16904019 1.0580001 3223084
-0.11759321 -0.16628411 1.0580001 3025713
-0.11575577 -0.16628411 1.0580001 2960185
-0.1139184 -0.16628411 1.0580001 3025986
-0.11759321 -0.163528 1.0580001 3025969
-0.11575577 -0.163528 1.0580001 3025969
-0.1139184 -0.163528 1.0580001 3091249
-0.11820566 -0.16046569 1.0580001 2960690
-0.11575577 -0.16077191 1.0580001 3157040
-0.11330593 -0.16107816 1.0580001 3156780
-0.12371783 -0.1567909 1.0580001 3352365
-0.12126794 -0.15801583 1.0580001 3157303
-0.11943057 -0.15801583 1.0580001 3026230
-0.12769885 -0.15434106 1.0580001 3550522
-0.17455238 -0.15066627 1.0580001 269908
-0.17271501 -0.15066627 1.0580001 2039327
-0.17087758 -0.15066627 1.0580001 3814956
-0.1580158 -0.15066627 1.0580001 5131845
-0.1451541 -0.15158495 1.0580001 4737859
-0.14270422 -0.15189119 1.0580001 4671557
-0.13964187 -0.15250364 1.0580001 4541501
-0.13321102 -0.15250364 1.0580001 4411711
-0.1304549 -0.15250364 1.0580001 4410945
-0.17455238 -0.14882885 1.0580001 328049
-0.17271501 -0.14882885 1.0580001 1774101
-0.17087758 -0.14882885 1.0580001 3291934
-0.17455238 -0.14699149 1.0580001 412084
-0.17271501 -0.14699149 1.0580001 1574531
-0.17087758 -0.14699149 1.0580001 2823801
-0.11792664 -0.16951951 1.0610001 3157544
-0.11516271 -0.16951951 1.0610001 3092021
-0.11239878 -0.16951951 1.0610001 3092274
-0.11239878 -0.16675562 1.0610001 3091509
-0.1105562 -0.16675562 1.0610001 3026217
-0.11239878 -0.16399167 1.0610001 3155751
-0.10994201 -0.1627633 1.0610001 3026211
-0.11239878 -0.16030648 1.0610001 3157035
-0.10963491 -0.16030648 1.0610001 3026219
-0.11792664 -0.15846391 1.0610001 3092021
-0.12529702 -0.15477869 1.0610001 3616307
-0.16951953 -0.15201479 1.0610001 4273985
-0.16675559 -0.15293607 1.0610001 4537930
-0.16337752 -0.15170769 1.0610001 4999756
-0.16030651 -0.1510935 1.0610001 5131593
-0.15293607 -0.1510935 1.0610001 5066300
-0.13819526 -0.15293607 1.0610001 4543036
-0.13635269 -0.15293607 1.0610001 4477500
-0.1308248 -0.1510935 1.0610001 5461323
-0.12898223 -0.15201479 1.0610001 4936262
-0.15662128 -0.14925086 1.0610001 4211520
-0.1547787 -0.14925086 1.0610001 4145981
-0.15293607 -0.14925086 1.0610001 4080441
-0.10902102 -0.16815104 1.064 2960682
-0.10624927 -0.16815104 1.064 3091754
-0.10347752 -0.16907494 1.064 3222833
-0.1010138 -0.16938291 1.064 3288626
-0.10902102 -0.1663032 1.064 2895144
-0.10624927 -0.1663032 1.064 3091756
-0.10902102 -0.16445535 1.064 2960933
-0.10624927 -0.16353147 1.064 3026223
-0.10347752 -0.16353147 1.064 3223348
-0.10162973 -0.16260758 1.064 3223344
-0.10624927 -0.16075975 1.064 3026482
-0.10347752 -0.16075975 1.064 3092020
-0.10162973 -0.16075975 1.064 3223343
-0.12103176 -0.15706412 1.064 3287354
-0.11826009 -0.15706412 1.064 3222072
-0.1157963 -0.15829602 1.064 3222055
-0.11271659 -0.15891196 1.064 3222568
-0.10994491 -0.15798804 1.064 3091250
-0.10655724 -0.15829602 1.064 3026228
-0.12749915 -0.15336849 1.064 4543296
-0.12380351 -0.15521634 1.064 3682361
-0.16815099 -0.15152071 1.064 4996929
-0.1663032 -0.15152071 1.064 5066570
-0.14228164 -0.15152071 1.064 5065284
-0.14043379 -0.15152071 1.064 5066307
-0.16907492 -0.14874898 1.064 3486802
-0.1663032 -0.14967288 1.064 4014154
-0.1635315 -0.14967288 1.064 3947848
-0.16075978 -0.14967288 1.064 4079173
-0.15798803 -0.14874899 1.064 3683672
-0.14412943 -0.14967288 1.064 4147524
-0.14228164 -0.14967288 1.064 4147015
-0.14043379 -0.14967288 1.064 4344138
-0.16907492 -0.14597726 1.064 8618427
-0.10015707 -0.1687832 1.0680001 3289154
-0.097374901 -0.1687832 1.0680001 3158578
-0.10263005 -0.16631013 1.0680001 3484978
-0.10015707 -0.16600101 1.0680001 3289394
-0.097374901 -0.16600101 1.0680001 3158823
-0.094592735 -0.16600101 1.0680001 3224103
-0.092738003 -0.16507362 1.0680001 3092524
-0.10015707 -0.1632189 1.0680001 3288876
-0.097374901 -0.1632189 1.0680001 3289125
-0.094592735 -0.1632189 1.0680001 3223592
-0.10293917 -0.15950938 1.0680001 3157555
-0.10015707 -0.16043673 1.0680001 3289132
-0.097684026 -0.16074586 1.0680001 3288613
-0.11499514 -0.1576546 1.0680001 3221528
-0.11314033 -0.1576546 1.0680001 3221030
-0.10572133 -0.1576546 1.0680001 3091510
-0.10293917 -0.1576546 1.0680001 3157557
-0.10015707 -0.1576546 1.0680001 3223343
-0.12612367 -0.15394507 1.0680001 4542783
-0.12426893 -0.15394507 1.0680001 4542529
-0.12148677 -0.15579985 1.0680001 3486270
-0.11870467 -0.15579985 1.0680001 3355964
-0.1159225 -0.15579985 1.0680001 3287344
-0.11190385 -0.15518159 1.0680001 3616826
-0.10943087 -0.15487246 1.0680001 3880253
-0.1066487 -0.15487246 1.0680001 3682879
-0.10386654 -0.15579985 1.0680001 3157313
-0.15209034 -0.15023556 1.0680001 4145974
-0.139107 -0.15116295 1.0680001 4804168
-0.10943087 -0.15209034 1.0680001 5066057
-0.16600104 -0.14838082 1.0680001 2894725
-0.16321887 -0.14838082 1.0680001 2893181
-0.16043673 -0.14838082 1.0680001 3091060
-0.15487248 -0.14838082 1.0680001 3090792
-0.15209034 -0.14838082 1.0680001 3155556
-0.16321887 -0.14652604 1.0680001 7494322
-0.16136414 -0.14652604 1.0680001 7494314
-0.094858438 -0.1692573 1.0710001 3224109
-0.092068538 -0.1692573 1.0710001 3289137
-0.091758549 -0.16677731 1.0710001 3092526
-0.089278549 -0.16553731 1.0710001 3289137
-0.092068538 -0.16367736 1.0710001 2961454
-0.089278549 -0.16367736 1.0710001 3288624
-0.09671846 -0.15995744 1.0710001 3223068
-0.094858438 -0.16088741 1.0710001 3092007
-0.092378527 -0.16119739 1.0710001 3092270
-0.10229835 -0.1562375 1.0710001 3157822
-0.10043842 -0.1562375 1.0710001 3157818
-0.098578393 -0.15809743 1.0710001 3288353
-0.12182802 -0.15437749 1.0710001 4345411
-0.11810811 -0.15437749 1.0710001 4212544
-0.11531816 -0.15437749 1.0710001 4211777
-0.11345814 -0.15437749 1.0710001 4146241
-0.10322832 -0.15437749 1.0710001 3944778
-0.10043842 -0.15437749 1.0710001 3878470
-0.1171781 -0.15251756 1.0710001 5198408
-0.1115982 -0.15251756 1.0710001 5066314
-0.10787825 -0.15251756 1.0710001 4934728
-0.088596053 -0.16973141 1.074 3551034
-0.0882852 -0.16724448 1.0740001 3420211
-0.085798249 -0.1669336 1.074 3420204
-0.0882852 -0.16289237 1.0740001 3485234
-0.085798249 -0.16320324 1.074 3485751
-0.091393851 -0.1604055 1.074 3223599
-0.088596053 -0.1604055 1.074 3420208
-0.085798249 -0.1604055 1.074 3485750
-0.082067952 -0.1604055 1.074 3353891
-0.097921953 -0.1576077 1.074 3157280
-0.094191581 -0.15854029 1.074 2961191
-0.091393851 -0.15854029 1.074 3223086
-0.089528628 -0.15854029 1.074 3354671
-0.085798249 -0.15854029 1.074 3551281
-0.098854527 -0.15480992 1.074 3878201
-0.10631528 -0.15294479 1.074 4868169
-0.084245704 -0.16849141 1.0780001 3354924
-0.082373604 -0.16849141 1.0780001 3421230
-0.080501437 -0.16849141 1.0780001 3552566
-0.084245704 -0.16661926 1.0780001 3354925
-0.082373604 -0.16661926 1.0780001 3355438
-0.079565391 -0.16661926 1.0780001 3420979
-0.084245704 -0.16381109 1.0780001 3420465
-0.082373604 -0.16381109 1.0780001 3354924
-0.079565391 -0.16381107 1.0780001 3354670
-0.07675717 -0.16287501 1.0780001 3617327
-0.087989971 -0.15913077 1.0780001 3551792
-0.084245704 -0.16006684 1.0780001 3485737
-0.082373604 -0.15913077 1.0780001 3485467
-0.079565391 -0.16006684 1.0780001 3420201
-0.07675717 -0.16006684 1.0780001 3682860
-0.07488507 -0.16006684 1.0780001 3814701
-0.097350605 -0.15725866 1.0780001 2960672
-0.094542384 -0.15725866 1.0780001 2830130
-0.091734238 -0.15725866 1.0780001 3223353
-0.088926017 -0.15725866 1.0780001 3485498
-0.085181758 -0.15725866 1.0780001 3616824
-0.082373604 -0.15725866 1.0780001 3617833
-0.079565391 -0.15725866 1.0780001 3682861
-0.07675717 -0.15725866 1.0780001 3682864
-0.071140803 -0.15725866 1.0780001 2830913
-0.12356033 -0.15351442 1.0780001 5329484
-0.12168824 -0.15351442 1.0780001 5263946
-0.11981614 -0.15351442 1.0780001 5198408
-0.11513579 -0.15351442 1.0780001 5067079
-0.10483907 -0.15351442 1.0780001 4801611
-0.10109487 -0.15351442 1.0780001 4668489
-0.097350605 -0.15538649 1.0780001 3616045
-0.093606338 -0.15538649 1.0780001 3616323
-0.091734238 -0.15538649 1.0780001 3747907
-0.089862064 -0.15538649 1.0780001 3812932
-0.082373604 -0.15538649 1.0780001 3879223
-0.079565391 -0.15538649 1.0780001 3812914
-0.14228161 -0.14977016 1.0780001 3616102
-0.078848153 -0.1689603 1.0810001 3553086
-0.076032124 -0.1689603 1.0810001 3813932
-0.073216163 -0.1689603 1.0810001 4403747
-0.076032124 -0.1661443 1.0810001 3682864
-0.073216163 -0.16614428 1.0810001 4143157
-0.070400126 -0.1661443 1.0810001 1908269
-0.067584097 -0.16614428 1.0810001 6820097
-0.064768136 -0.16614428 1.0810001 13548437
-0.075093471 -0.16332828 1.0810001 3814705
-0.073216163 -0.16332828 1.0810001 4012085
-0.070400126 -0.16332828 1.0810001 2042411
-0.067584097 -0.16332828 1.0810001 5832961
-0.064768136 -0.16332828 1.0810001 11769202
-0.073216163 -0.16051228 1.0810001 3945781
-0.070400126 -0.16051228 1.0810001 2237741
-0.067584097 -0.16145097 1.0810001 5112065
-0.075093471 -0.15769629 1.0810001 3813937
-0.073216163 -0.15769629 1.0810001 3945017
-0.069461472 -0.15769629 1.0810001 1708833
-0.12765887 -0.15394163 1.0810001 5461322
-0.12578158 -0.15394163 1.0810001 5460043
-0.10325352 -0.15394163 1.0810001 4800586
-0.099498831 -0.15394163 1.0810001 4537161
-0.097621523 -0.15394163 1.0810001 4340554
-0.095744148 -0.15581892 1.0810001 3419448
-0.09011215 -0.15394163 1.0810001 4208709
-0.088234834 -0.15581892 1.0810001 3812679
-0.085418805 -0.15581892 1.0810001 3878725
-0.079786807 -0.15394163 1.0810001 4075579
-0.076032124 -0.15488029 1.0810001 3945019
-0.073216163 -0.15581892 1.0810001 4076094
-0.070400126 -0.15581892 1.0810001 1710644
-0.14830962 -0.15112561 1.0810001 3619159
-0.1454936 -0.15018696 1.0810001 3221098
-0.082602851 -0.15112561 1.0810001 5264966
-0.080099702 -0.1514385 1.0810001 5068101
-0.076032124 -0.15206426 1.0810001 4081996
-0.1454936 -0.14830959 1.0810001 6488463
-0.070660628 -0.1695855 1.085 2036261
-0.067834169 -0.1695855 1.085 7815480
-0.065949917 -0.1695855 1.085 14464651
-0.065949917 -0.16204838 1.085 8535374
-0.062181339 -0.16393264 1.085 16711371
-0.067834169 -0.16016407 1.085 5439745
-0.065949917 -0.16016407 1.085 9120079
-0.067834169 -0.15827981 1.085 5702145
-0.13001558 -0.15451126 1.085 5526859
-0.096098423 -0.15451126 1.085 4209480
-0.094214171 -0.15451126 1.085 4275014
-0.092329912 -0.15451126 1.085 4340038
-0.088561334 -0.15451126 1.085 4076870
-0.082908496 -0.15451126 1.085 4207421
-0.14132126 -0.15074268 1.085 3943781
-0.139437 -0.15074268 1.085 4337252
-0.12247843 -0.15262695 1.085 5394515
-0.11870984 -0.15262695 1.085 5395535
-0.10740416 -0.15262695 1.085 5198669
-0.099867001 -0.15262695 1.085 5069145
-0.13037507 -0.15304896 1.0880001 5263703
-0.1275408 -0.15304896 1.0880001 5460309
-0.12470654 -0.15304896 1.0880001 5460053
-0.1209276 -0.15304896 1.0880001 5395025
-0.1171486 -0.15304896 1.0880001 5329742
-0.11525907 -0.15304896 1.0880001 5329488
-0.11336961 -0.15304896 1.0880001 5329491
-0.1058116 -0.15304896 1.0880001 5199179
-0.10203268 -0.15304896 1.0880001 5134412
-0.098253675 -0.15304896 1.0880001 5003367
-0.085971937 -0.15493847 1.0880001 4207428
-0.137933 -0.1511595 1.0880001 4732254
-0.13320926 -0.1511595 1.0880001 4866128
-0.10014313 -0.1511595 1.0880001 5659218
-0.14265673 -0.14926997 1.0880001 6553984
-0.13982254 -0.14926997 1.0880001 6160762
-0.13415399 -0.14926997 1.0880001 5701968
-0.064419948 -0.1629445 1.0910001 12634267
-0.062525198 -0.1629445 1.0910001 16711372
-0.064419948 -0.16104977 1.0910001 12898718
-0.13957649 -0.15473413 1.0910001 5067081
-0.13641866 -0.15536571 1.0910001 5330506
-0.13357657 -0.15347096 1.0910001 5132630
-0.10420869 -0.15347096 1.0910001 5199947
-0.096629843 -0.15347096 1.0910001 4872024
-0.094735175 -0.15347096 1.0910001 5003082
-0.091893122 -0.15347096 1.0910001 5068615
-0.089051075 -0.15347096 1.0910001 5134661
-0.13641866 -0.15157628 1.0910001 4799832
-0.13073456 -0.15157628 1.0910001 4997706
-0.12789248 -0.15157628 1.0910001 5391686
-0.12410305 -0.15157628 1.0910001 5524292
-0.12126105 -0.15157628 1.0910001 5591622
-0.11841896 -0.15157628 1.0910001 5591875
-0.11557688 -0.15157628 1.0910001 5592386
-0.10705073 -0.15157628 1.0910001 5526592
-0.098524593 -0.15157628 1.0910001 5593945
-0.1430501 -0.14778689 1.0910001 9477564
-0.13926071 -0.14873421 1.0910001 6833808
-0.13641866 -0.14968155 1.0910001 5701981
-0.13326079 -0.14841846 1.0910001 6113916
-0.13073456 -0.14968155 1.0910001 5446462
-0.12789248 -0.14968155 1.0910001 4532279
-0.10673495 -0.14905 1.0910001 3289678
-0.10420869 -0.14778689 1.0910001 2893949
-0.10041926 -0.14968155 1.0910001 4345162
-0.10610336 -0.14589216 1.0910001 8354764
-0.10420869 -0.14589216 1.0910001 8420283
-0.06655775 -0.15973862 1.095 9784917
-0.064656131 -0.15973862 1.095 13228714
-0.062120568 -0.1603725 1.095 16645856
-0.067508563 -0.15783694 1.095 8534574
-0.064656131 -0.15783694 1.095 13887159
-0.061803628 -0.15783694 1.095 16645868
-0.13882044 -0.15403363 1.095 5000785
-0.13691881 -0.15403363 1.095 5066835
-0.11219738 -0.15403363 1.095 5329489
-0.11029569 -0.15403363 1.095 5263952
-0.087475874 -0.15403363 1.095 5068867
-0.070361063 -0.15498447 1.095 1049423
-0.067508563 -0.15498447 1.095 10052218
-0.064656131 -0.15593533 1.095 14545870
-0.061803628 -0.15593533 1.095 16645873
-0.12455806 -0.15023035 1.095 4141365
-0.12170564 -0.15023035 1.095 3942459
-0.11790232 -0.15023035 1.095 3616566
-0.10395688 -0.15086424 1.095 4738628
-0.097618014 -0.15086424 1.095 4935501
-0.094131693 -0.15213202 1.095 5789513
-0.091279186 -0.15118119 1.095 5526604
-0.070361063 -0.15213202 1.095 3685776
-0.067508563 -0.15213202 1.095 12233151
-0.13882044 -0.14832872 1.095 6715565
-0.13691881 -0.14832872 1.095 6645413
-0.13026303 -0.14832872 1.095 5201811
-0.12741056 -0.14832872 1.095 3033489
-0.12550887 -0.14832872 1.095 2897808
-0.10839407 -0.14832872 1.095 1709952
-0.10268913 -0.14832872 1.095 2963577
-0.10078745 -0.14832872 1.095 3101305
-0.098885812 -0.14832872 1.095 3484536
-0.14262375 -0.14642705 1.095 13039093
-0.13977128 -0.14642705 1.095 12051441
-0.13596797 -0.14642705 1.095 11657964
-0.1331155 -0.14642705 1.095 11460583
-0.10268913 -0.14642705 1.095 8087978
-0.059112631 -0.16017626 1.098 16514556
-0.059112631 -0.15826938 1.098 16447996
-0.085808702 -0.15445565 1.098 5003331
-0.12013217 -0.15064195 1.098 3681592
-0.1144116 -0.15159538 1.098 4605242
-0.11250477 -0.15159538 1.098 4670778
-0.11059786 -0.15159538 1.098 4605243
-0.10297047 -0.15254882 1.098 5659210
-0.094389588 -0.15064195 1.098 4934986
-0.088668987 -0.15254882 1.098 6117703
-0.085808702 -0.15254882 1.098 5724231
-0.12394591 -0.14873511 1.098 2829452
-0.12203907 -0.14873511 1.098 2302600
-0.11250477 -0.14873511 1.098 1903750
-0.11059786 -0.14873511 1.098 1775231
-0.097249836 -0.14873511 1.098 3944310
-0.094389588 -0.14873511 1.098 4141941
-0.12966646 -0.14682822 1.098 10605548
-0.12775964 -0.14682822 1.098 9883116
-0.12489932 -0.14682822 1.098 9748967
-0.12203907 -0.14682822 1.098 9417941
-0.11250477 -0.14682822 1.098 8754394
-0.094389588 -0.14682822 1.098 7748768
-0.11674218 -0.15119073 1.102 3486260
-0.12056981 -0.14832003 1.102 5399736
-0.11578529 -0.14927694 1.102 1509263
-0.091862708 -0.14927694 1.102 4141175
-0.088992 -0.14927694 1.102 3879543
-0.12631121 -0.14544933 1.102 16645873
-0.12439743 -0.14544933 1.102 16645868
-0.11833936 -0.14840397 1.105 6517457
-0.115141 -0.1477643 1.105 8820971
-0.097869821 -0.1477643 1.105 7954338
-0.091153294 -0.1477643 1.105 7343522
-0.08827474 -0.1477643 1.105 7209637
-0.086355753 -0.14872381 1.105 5314187
-0.12185757 -0.14584529 1.105 16449002
-0.097869821 -0.14584529 1.105 11977167
-0.095950834 -0.14584529 1.105 11516878
-0.090193801 -0.14584529 1.105 10532046
-0.08827474 -0.14584529 1.105 10728911
-0.086355753 -0.14584529 1.105 10991307
-0.090193801 -0.14392626 1.105 13631226
-0.08827474 -0.14392626 1.105 13696762
-0.090520293 -0.15215109 1.1090001 5132363
-0.088594288 -0.15215109 1.1090001 4870217
-0.086980954 -0.15269989 1.113 4608075
-0.085277312 -0.15311147 1.1160001 3820621
-0.083339147 -0.15311147 1.1160001 3098948
-0.081692815 -0.15366027 1.12 3220796
-0.085582964 -0.15171523 1.12 2040437
-0.082665332 -0.15171523 1.12 723335
-0.085812204 -0.15017131 1.123 6882717
-0.085812204 -0.14822106 1.123 11843528
