# .PCD v0.7 - Point Cloud Data file format
VERSION 0.7
FIELDS x y z rgba
SIZE 4 4 4 4
TYPE F F F U
COUNT 1 1 1 1
WIDTH 541
HEIGHT 1
VIEWPOINT 0 0 0 1 0 0 0
POINTS 541
DATA ascii
0.077681102 -0.19333965 0.99400002 3947313
0.079407349 -0.19333965 0.99400002 4013106
0.07336548 -0.19075026 0.99400002 6116296
0.076817974 -0.19075026 0.99400002 6050757
0.079407349 -0.19075027 0.99400002 5524882
0.081133612 -0.19075027 0.99400002 5721752
0.07336548 -0.18729778 0.99400002 4735078
0.076817974 -0.18729778 0.99400002 6116293
0.079407349 -0.18729778 0.99400002 6774008
0.081133612 -0.18729778 0.99400002 6774008
0.07336548 -0.1847084 0.99400002 3946037
0.076817974 -0.1847084 0.99400002 4011560
0.079407349 -0.1847084 0.99400002 4275479
0.07336548 -0.18298218 0.99400002 5196182
0.076817974 -0.18298218 0.99400002 6774008
0.079407349 -0.18298218 0.99400002 6774008
0.070989735 -0.19305742 0.99700004 4275508
0.073586911 -0.19392316 0.99700004 4735043
0.076184087 -0.19392316 0.99700004 4406833
0.082244195 -0.19305742 0.99700004 5393555
0.070124 -0.19046026 0.99700004 4209448
0.083109915 -0.19046026 0.99700004 4932165
0.084841371 -0.19046026 0.99700004 5260862
0.070124 -0.18786305 0.99700004 5458839
0.083109915 -0.18786305 0.99700004 6774008
0.084841371 -0.18872876 0.99700004 6774008
0.070412576 -0.18468873 0.9970001 4471096
0.081378475 -0.18440014 0.99700004 5590671
0.074452624 -0.18180296 0.99700004 3880757
0.077049822 -0.18180296 0.99700004 6774008
0.079647012 -0.18180296 0.99700004 4144173
0.081378475 -0.18180296 0.99700004 6774008
0.069466673 -0.19277 1 6774008
0.085964993 -0.19363835 1 4537907
0.088570014 -0.19277 1 4606265
0.067730002 -0.19016501 1 5524626
0.086833335 -0.19016501 1 6774008
0.088570014 -0.19016501 1 6774008
0.067730002 -0.18756002 1 4078130
0.085964993 -0.18756002 1 4932924
0.067730002 -0.18582334 1 4012593
0.069466673 -0.1840867 1 6774008
0.083359987 -0.18495502 1 4604214
0.085964993 -0.18495502 1 6247624
0.073808335 -0.18148166 1 6774008
0.076413326 -0.18061332 1 4079161
0.07901834 -0.18061332 1 5459349
0.082781106 -0.18119222 1 5984438
0.085096657 -0.18148166 1 4733245
0.081623346 -0.17887667 1 3947579
0.067062244 -0.1933483 1.003 4341295
0.091448531 -0.1933483 1.003 4606779
0.064449452 -0.19160645 1.003 6774008
0.066191301 -0.1907355 1.003 6774008
0.091448531 -0.1907355 1.003 5723035
0.066191301 -0.18725175 1.003 5392788
0.088835724 -0.18725175 1.003 4735803
0.091448531 -0.18725175 1.003 6774008
0.094061337 -0.1863808 1.003 6774008
0.067062244 -0.18463896 1.003 5327509
0.088835724 -0.18463896 1.003 4734524
0.091448531 -0.18463896 1.003 4603708
0.094061337 -0.18463896 1.003 4802107
0.067933187 -0.18289706 1.003 3946803
0.070836328 -0.18231642 1.003 5063539
0.07315883 -0.18115516 1.003 6774008
0.087964781 -0.18202612 1.003 6181833
0.090577602 -0.18202612 1.003 6774008
0.076642565 -0.1794133 1.003 6774008
0.079545707 -0.17883268 1.003 4145467
0.083029449 -0.17825204 1.003 5918906
0.085351959 -0.17854236 1.003 4602698
0.087674469 -0.17883268 1.003 5326470
0.080126338 -0.17592956 1.003 6774008
0.08244884 -0.17534892 1.003 5130879
0.094342679 -0.1930531 1.006 5525654
0.064642221 -0.19043244 1.006 6774008
0.094342679 -0.19043244 1.006 4934219
0.064642221 -0.18781182 1.006 5393303
0.094342679 -0.18868539 1.006 4998467
0.096089773 -0.18781182 1.006 5984666
0.066389285 -0.1834441 1.006 3815733
0.092595585 -0.1834441 1.006 6774008
0.094342679 -0.1834441 1.006 6774008
0.09667214 -0.18460885 1.006 6182074
0.067262828 -0.181697 1.006 5393043
0.069883473 -0.181697 1.006 6774008
0.092595585 -0.181697 1.006 4800565
0.094342679 -0.181697 1.006 4800570
0.075998262 -0.17907637 1.006 4407616
0.089101426 -0.17820282 1.006 4668741
0.091722056 -0.17907637 1.006 6774008
0.094342679 -0.17907637 1.006 5656216
0.083860151 -0.17470866 1.006 6774008
0.085607246 -0.1755822 1.006 5721758
0.087936699 -0.17587338 1.006 6050238
0.096280806 -0.19343689 1.008 4408387
0.06302017 -0.18993577 1.008 6774008
0.097447857 -0.19022754 1.0080001 6247870
0.06302017 -0.18730992 1.008 6774008
0.098031372 -0.18730992 1.008 5194815
0.063895449 -0.1846841 1.008 5262232
0.098031372 -0.1838088 1.008 6774008
0.09978193 -0.18555939 1.008 6774008
0.064770736 -0.18205822 1.008 6774008
0.068271838 -0.18030769 1.008 6774008
0.070897684 -0.18030769 1.008 5458573
0.073523529 -0.18030769 1.008 4275258
0.097156093 -0.18118295 1.008 5261163
0.078775205 -0.17855711 1.008 6774008
0.097156093 -0.17855711 1.008 4407620
0.077024639 -0.17593127 1.008 6774008
0.079358727 -0.17563951 1.0080001 6182334
0.091904402 -0.17680657 1.008 4537417
0.09453024 -0.17680657 1.008 4144719
0.096280806 -0.17680657 1.008 6774008
0.061451953 -0.19313473 1.011 3816002
0.063207731 -0.19313473 1.011 4077377
0.098323129 -0.19313473 1.011 4934223
0.10007891 -0.19313473 1.011 4998464
0.059696175 -0.19050106 1.011 6774008
0.061451953 -0.19050106 1.011 6774008
0.10095678 -0.19050106 1.011 6314187
0.059696175 -0.18611164 1.011 6774008
0.061451953 -0.18698952 1.011 5524374
0.10124941 -0.18728215 1.011 5259880
0.10359043 -0.18611164 1.011 1966384
0.059696175 -0.18435585 1.011 3881529
0.061451953 -0.18435585 1.011 6774008
0.10095678 -0.18435585 1.011 4143153
0.059696175 -0.18172219 1.011 6774008
0.061451953 -0.18172219 1.011 5393301
0.063792989 -0.18142956 1.011 4867448
0.066719249 -0.18084432 1.011 6774008
0.10095678 -0.18172219 1.011 5722308
0.063207731 -0.17908852 1.011 4012346
0.068475023 -0.17908852 1.011 4077882
0.071108684 -0.17908852 1.011 6774008
0.07374236 -0.17908852 1.011 4407108
0.075498097 -0.17908852 1.011 6774008
0.098323129 -0.17733279 1.011 6774008
0.10095678 -0.17821065 1.011 6247877
0.10359043 -0.17821065 1.011 983363
0.10622409 -0.17821066 1.011 9142250
0.10944301 -0.17791805 1.011 6774008
0.11236928 -0.17733279 1.011 16513013
0.098323129 -0.17557698 1.011 1778256
0.10095678 -0.17557698 1.011 657749
0.10359043 -0.17557698 1.011 1984908
0.10095678 -0.17382126 1.011 6774008
0.10359043 -0.17382126 1.011 8884943
0.10301732 -0.19370782 1.0140001 1707071
0.056351375 -0.19194682 1.0140001 4077872
0.058112327 -0.19106634 1.0140001 5393046
0.10389782 -0.19106634 1.0140001 2818394
0.1062458 -0.19077286 1.0140002 6774008
0.056351375 -0.18754438 1.0140001 3618849
0.058699325 -0.18783788 1.0140002 4867439
0.10389782 -0.18842486 1.0140001 2752842
0.10653929 -0.18754439 1.0140001 9931466
0.10976776 -0.1872509 1.0140002 10064628
0.11270272 -0.18666391 1.0140001 6774008
0.1153442 -0.18754438 1.0140001 11577846
0.056351375 -0.1840224 1.0140001 3749683
0.058112327 -0.1840224 1.0140001 5262230
0.10389782 -0.1840224 1.0140001 786716
0.10653929 -0.1840224 1.0140001 7165882
0.11006126 -0.1840224 1.0140001 8946932
0.056351375 -0.18138094 1.0140001 3815481
0.058112327 -0.18138094 1.0140001 6774008
0.10389782 -0.18138094 1.0140001 524590
0.10653929 -0.18138094 1.0140001 11635041
0.11006126 -0.18138094 1.0140001 6774008
0.058992822 -0.17873947 1.0140001 6774008
0.061634302 -0.17873946 1.0140001 4208948
0.064569287 -0.17844598 1.0140002 5064316
0.066917233 -0.17961994 1.0140001 6774008
0.072200194 -0.17785899 1.0140001 6774008
0.075722128 -0.17785899 1.0140001 6774008
0.056351375 -0.17609799 1.0140001 6774008
0.058992822 -0.17521751 1.0140001 5590939
0.061634302 -0.17521751 1.0140001 4932668
0.063395292 -0.17521751 1.0140001 5788059
0.09421242 -0.17609799 1.0140001 6774008
0.096853904 -0.17609799 1.0140001 6774008
0.052985702 -0.1925147 1.0170001 3356726
0.054751899 -0.1925147 1.0170001 4012595
0.1068545 -0.19339782 1.0170001 12034197
0.1095038 -0.1925147 1.0170001 16317171
0.11126996 -0.1925147 1.0170001 16645875
0.052985702 -0.19074854 1.0170001 3946802
0.055634998 -0.19074854 1.0170001 5327759
0.1095038 -0.19074854 1.0170001 6774008
0.11126996 -0.19074854 1.0170001 16711413
0.052985702 -0.18898234 1.0170001 3815727
0.054751899 -0.18809925 1.0170001 6774008
0.11215305 -0.18898234 1.0170001 11643638
0.054751899 -0.18456686 1.0170001 5196181
0.052985702 -0.18191758 1.0170001 3815237
0.055340633 -0.1807401 1.0170001 4801914
0.055634998 -0.1783852 1.0170001 5261977
0.067998305 -0.1783852 1.0170001 6774008
0.070647605 -0.1783852 1.0170001 4604236
0.07418 -0.1783852 1.0170001 4735822
0.06534905 -0.17661898 1.0170001 4999237
0.090958796 -0.17661898 1.0170001 5787035
0.051370595 -0.19042552 1.0200001 5327253
0.052256297 -0.18776843 1.0200001 3683887
0.052256297 -0.18511128 1.0200001 5984967
0.052256297 -0.18156849 1.0200001 5261724
0.054913409 -0.17714 1.0200001 6774008
0.067313187 -0.17714 1.0200001 6774008
0.069970295 -0.17714 1.0200001 5919650
0.07262741 -0.17714 1.0200001 6774008
0.065541811 -0.17536862 1.0200001 6774008
0.047968484 -0.19098559 1.023 5523858
0.049745068 -0.19098559 1.023 5392789
0.049745068 -0.18743238 1.023 3880750
0.049745068 -0.18476743 1.023 4012079
0.049745068 -0.18210253 1.023 5327253
0.051521685 -0.18121421 1.023 6774008
0.0527061 -0.17884541 1.023 4801147
0.074617632 -0.17766099 1.023 6774008
0.076394223 -0.17766099 1.023 5065038
0.067511164 -0.17588441 1.023 5262420
0.070176095 -0.17588441 1.023 5985443
0.092383742 -0.17588441 1.023 4013370
0.094160318 -0.17588441 1.023 6774008
0.04632733 -0.19065475 1.026 4077108
0.048109155 -0.18798202 1.026 5327507
0.04632733 -0.18441837 1.026 5326991
0.048109155 -0.18441837 1.026 5523601
0.04632733 -0.18174563 1.026 3880745
0.048109155 -0.18174563 1.026 6774008
0.049297016 -0.1793699 1.026 4800889
0.051672775 -0.17818199 1.026 6774008
0.065927356 -0.17461835 1.026 6774008
0.067709148 -0.17461835 1.026 6774008
0.085527346 -0.1764002 1.026 6774008
0.088200092 -0.1764002 1.026 5459860
0.090872832 -0.1764002 1.026 6774008
0.04650794 -0.18960929 1.0300001 6774008
0.044719167 -0.18603171 1.0300001 6774008
0.04650794 -0.18782051 1.0300001 3880237
0.044719167 -0.18424298 1.0300001 6774008
0.044719167 -0.18245418 1.0300001 3880756
0.04650794 -0.18066545 1.0300001 3880243
0.048296712 -0.17887665 1.0300001 6774008
0.055451773 -0.17708792 1.0300001 4471876
0.088543952 -0.17529912 1.0300001 6774008
0.044849418 -0.19016156 1.033 6774008
0.043653429 -0.18776956 1.033 5787574
0.043055434 -0.18477961 1.033 3814449
0.043952428 -0.18208863 1.033 6774008
0.044849418 -0.17939766 1.033 3945268
0.046643399 -0.17939766 1.033 6774008
0.049334358 -0.17760371 1.033 5457565
0.052922308 -0.17760371 1.033 5523357
0.057407267 -0.17760371 1.033 6774008
0.041381281 -0.19071381 1.036 3946292
0.043180477 -0.19071381 1.036 6774008
0.040481701 -0.18801501 1.036 6774008
0.040781565 -0.18471651 1.036 4801140
0.041381281 -0.18171786 1.036 3880772
0.043180477 -0.18171786 1.036 6774008
0.041381281 -0.17991865 1.036 6774008
0.043780208 -0.17871921 1.036 5787579
0.046778861 -0.1781195 1.036 3877914
0.070168279 -0.17632028 1.036 6774008
0.037290871 -0.19006312 1.039 5853620
0.039696742 -0.19126607 1.039 4012596
0.03428353 -0.18765724 1.039 6774008
0.036990136 -0.18765724 1.039 3946543
0.03428353 -0.18495065 1.039 5261719
0.036990136 -0.18495066 1.039 6774008
0.039696742 -0.18404844 1.039 6774008
0.036990136 -0.18134187 1.039 5130393
0.039696742 -0.18134187 1.039 5195929
0.037892338 -0.1786353 1.039 3684913
0.040598929 -0.1786353 1.039 5261463
0.048718724 -0.17683086 1.039 6774008
0.052327499 -0.17683086 1.039 6774008
0.034382522 -0.1900087 1.0420001 4405298
0.031969719 -0.18699269 1.0420001 6774008
0.032572906 -0.18457986 1.0420001 3881013
0.032572906 -0.18277028 1.0420001 6774008
0.034382522 -0.18186547 1.0420001 6774008
0.034382522 -0.17915107 1.0420001 3881518
0.036192134 -0.17915107 1.0420001 3750443
0.050668973 -0.17734145 1.0420001 4337474
0.054288205 -0.17734145 1.0420001 6774008
0.059717011 -0.17734145 1.0420001 6774008
0.032666687 -0.19055575 1.0450001 4275259
0.030851897 -0.18874091 1.0450001 6774008
0.030851897 -0.18420389 1.0450001 5393046
0.032666687 -0.18148166 1.0450001 6774008
0.031759292 -0.17966686 1.0450001 5327764
0.034481511 -0.17785203 1.0450001 4012071
0.036296334 -0.17785203 1.0450001 6774008
0.043555595 -0.17785203 1.0450001 3814205
0.046277829 -0.17785203 1.0450001 6774008
0.056259327 -0.17785203 1.0450001 6774008
0.06170376 -0.17785203 1.0450001 6774008
0.063518584 -0.17785203 1.0450001 6774008
0.073500082 -0.17875946 1.0450001 6774008
0.079851933 -0.17966686 1.0450001 6774008
0.082574166 -0.17875946 1.0450001 5984925
0.0852964 -0.17875946 1.0450001 5918624
0.054444503 -0.17603724 1.0450001 6774008
0.059888937 -0.17603724 1.0450001 6774008
0.068963021 -0.17603724 1.0450001 6774008
0.070777841 -0.17603724 1.0450001 5590071
0.029120436 -0.18928276 1.0480001 4340027
0.029120436 -0.18746276 1.0480001 6774008
0.029120436 -0.18473271 1.0480001 3946287
0.029120436 -0.18109265 1.0480001 3946286
0.030940467 -0.18200265 1.0480001 3946543
0.076441132 -0.18018265 1.0480001 6774008
0.078261137 -0.18018265 1.0480001 6774008
0.031850465 -0.17836261 1.0480001 6774008
0.038220566 -0.17836261 1.0480001 3683626
0.040950604 -0.17836261 1.0480001 6774008
0.058240872 -0.17836261 1.0480001 6774008
0.065520972 -0.17836261 1.0480001 6774008
0.074621104 -0.17836261 1.0480001 6774008
0.076441132 -0.17836261 1.0480001 6774008
0.079171151 -0.17836261 1.0480001 6050976
0.032760464 -0.17654261 1.0480001 6774008
0.034580499 -0.17654261 1.0480001 4075296
0.05278077 -0.17563258 1.0480001 5197382
0.055814158 -0.17532925 1.0480001 6774008
0.058240872 -0.17563258 1.0480001 6182305
0.061274223 -0.17532925 1.0480001 6379198
0.064307623 -0.17593592 1.0480001 6774008
0.067341 -0.17563258 1.0480001 6774008
0.070071012 -0.17472255 1.0480001 6246799
0.074014425 -0.17593592 1.0480001 6774008
0.076441132 -0.17563258 1.0480001 4276567
0.079474494 -0.17593592 1.0480001 4602005
0.082811221 -0.1756326 1.0480001 4930470
0.085541271 -0.17563258 1.0480001 4471724
0.087361269 -0.17472255 1.0480001 5843523
0.067341 -0.17290255 1.0480001 4211003
0.070981033 -0.17290255 1.0480001 2956822
0.074621104 -0.17290255 1.0480001 6774008
0.076441132 -0.17199253 1.0480001 8143250
0.083721235 -0.17290255 1.0480001 9279950
0.085541271 -0.17290255 1.0480001 9485477
0.027404601 -0.18178385 1.052 5327508
0.02923158 -0.17812991 1.052 3880489
0.031058561 -0.17721644 1.052 6774008
0.037452959 -0.17721644 1.052 5326222
0.051155243 -0.17721644 1.052 6774008
0.032885507 -0.17538942 1.052 6774008
0.065771051 -0.17538942 1.052 6774008
0.073078938 -0.17538942 1.052 6774008
0.078559838 -0.17538942 1.052 6774008
0.056636184 -0.1735625 1.052 5656912
0.05846316 -0.1735625 1.052 6774008
0.060290106 -0.1735625 1.052 6774008
0.067598023 -0.1717355 1.052 2964845
0.070033982 -0.17234449 1.052 4539337
0.073687933 -0.17234449 1.052 6774008
0.079473332 -0.172649 1.052 8484848
0.082213804 -0.1735625 1.052 6774008
0.025650559 -0.1877988 1.0550001 6774008
0.027482752 -0.1877988 1.0550001 6774008
0.02381837 -0.18321832 1.0550001 6774008
0.025650559 -0.18413442 1.0550001 3684915
0.027482752 -0.18505053 1.0550001 6774008
0.02381837 -0.18138616 1.0550001 6774008
0.025650559 -0.18138616 1.0550001 3749942
0.025650559 -0.17955397 1.0550001 3879991
0.027482752 -0.17863789 1.0550001 5458324
0.040308051 -0.1777218 1.0550001 6774008
0.029314941 -0.1758896 1.0550001 6774008
0.032063209 -0.17497352 1.0550001 6774008
0.034811474 -0.1758896 1.0550001 6774008
0.054965504 -0.17405744 1.0550001 5525582
0.065042511 -0.17405744 1.0550001 6774008
0.032979287 -0.17222522 1.0550001 6774008
0.056797691 -0.17222522 1.0550001 5524300
0.058629882 -0.17222522 1.0550001 5260621
0.022967417 -0.18925151 1.0580001 6774008
0.022967417 -0.18741409 1.0580001 6774008
0.02266119 -0.18496428 1.0580001 4736889
0.02266119 -0.18067703 1.0580001 4735861
0.0257235 -0.17822717 1.0580001 3814968
0.043178737 -0.17822717 1.0580001 5524382
0.046853535 -0.17822717 1.0580001 6774008
0.049609635 -0.17822717 1.0580001 6774008
0.027560901 -0.17547107 1.0580001 5130646
0.036747869 -0.17638975 1.0580001 6774008
0.051447 -0.17638975 1.0580001 6774008
0.020268643 -0.18978816 1.0610001 3817280
0.020268643 -0.18702424 1.0610001 5394073
0.020268643 -0.18426032 1.0610001 6774008
0.020268643 -0.18149644 1.0610001 5393300
0.023953831 -0.17873254 1.0610001 6774008
0.029481661 -0.17504734 1.0610001 6774008
0.031324271 -0.17504734 1.0610001 6774008
0.038694676 -0.17688991 1.0610001 6774008
0.049750302 -0.17688991 1.0610001 6774008
0.053435493 -0.17504734 1.0610001 5459540
0.0552781 -0.17320471 1.0610001 5525835
0.018478133 -0.18755305 1.064 6774008
0.018478133 -0.18478131 1.064 6774008
0.018478133 -0.18200962 1.064 5459094
0.022173773 -0.1792379 1.064 6774008
0.024945471 -0.17739007 1.064 5196696
0.040651906 -0.17739007 1.064 4472380
0.0434236 -0.17739007 1.064 5788834
0.046195332 -0.17739007 1.064 6774008
0.048043154 -0.17739007 1.064 6774008
0.035108447 -0.17554229 1.064 6774008
0.051738761 -0.17554229 1.064 5459547
0.055434402 -0.17184667 1.064 6774008
0.016692834 -0.18918552 1.0680001 6774008
0.016692834 -0.18733077 1.0680001 4341561
0.016692834 -0.18454862 1.0680001 5524887
0.014838066 -0.18176648 1.0680001 4341562
0.016692834 -0.18176648 1.0680001 6774008
0.019784112 -0.17929348 1.0680001 5853625
0.022257134 -0.17805696 1.0680001 6774008
0.038022585 -0.17620222 1.0680001 6774008
0.040804736 -0.17620222 1.0680001 4936253
0.04358685 -0.17620222 1.0680001 6774008
0.046369001 -0.17620222 1.0680001 6774008
0.049151152 -0.17620222 1.0680001 6774008
0.053788036 -0.17434743 1.0680001 5526098
0.053788036 -0.1724927 1.0680001 6774008
0.013949776 -0.18785699 1.0710001 6774008
0.014259766 -0.18537703 1.0710001 5984952
0.016739724 -0.18041711 1.0710001 4209725
0.016739724 -0.17855713 1.0710001 4275516
0.0185997 -0.17855713 1.0710001 6774008
0.019529689 -0.17669716 1.0710001 5393561
0.022319656 -0.17669716 1.0710001 6774008
0.025109585 -0.17669716 1.0710001 5392536
0.039989367 -0.17483719 1.0710001 6117532
0.043709286 -0.17483719 1.0710001 6774008
0.046499252 -0.17483719 1.0710001 6774008
0.049289219 -0.17483719 1.0710001 6182307
0.052079145 -0.17483719 1.0710001 6774008
0.040919356 -0.17297724 1.0710001 6774008
0.043709286 -0.17297724 1.0710001 6050979
0.046499252 -0.17297724 1.0710001 5524295
0.049289219 -0.17297724 1.0710001 6774008
0.052079145 -0.17297724 1.0710001 4934743
0.011191087 -0.18838319 1.074 4078662
0.013056275 -0.18465284 1.074 6774008
0.011191087 -0.18278764 1.074 3554348
0.013677992 -0.18154421 1.0740001 5984950
0.013988851 -0.17905727 1.074 6774008
0.016786614 -0.17719212 1.074 4210236
0.016786614 -0.17532691 1.074 4144193
0.019584395 -0.17532691 1.074 6774008
0.022382174 -0.17532691 1.074 4141354
0.0373036 -0.17532691 1.074 6774008
0.039168786 -0.17346177 1.074 6774008
0.043831721 -0.17159657 1.074 6774008
0.0466295 -0.17159657 1.074 5523783
0.049427286 -0.17159657 1.074 6774008
0.052225027 -0.17159657 1.074 4269395
0.0046803169 -0.18721266 1.0780001 3366057
0.0074884994 -0.18721266 1.0780001 6774008
0.010296701 -0.18721266 1.0780001 5524889
0.0046803169 -0.1834684 1.0780001 6774008
0.0074884994 -0.1834684 1.0780001 6706560
0.0099846786 -0.18471651 1.0780001 4406399
0.011232767 -0.18159631 1.0780001 3226154
0.011232767 -0.17972416 1.0780001 2897964
0.01404095 -0.17785206 1.0780001 6774008
0.011232767 -0.17504385 1.0780001 2500394
0.014040951 -0.17504385 1.0780001 6181836
0.016849134 -0.1741078 1.0780001 6774008
0.019657334 -0.1741078 1.0780001 6774008
0.022465535 -0.1741078 1.0780001 4672822
0.024337633 -0.17504385 1.0780001 6774008
0.029954035 -0.1741078 1.0780001 6774008
0.035570402 -0.1759799 1.0780001 6115656
0.037442535 -0.1741078 1.0780001 5394255
0.019657334 -0.17223565 1.0780001 6774008
0.041186802 -0.17223565 1.0780001 5196618
0.044931032 -0.17036356 1.0780001 6774008
0.046803169 -0.17036356 1.0780001 3492935
0.049611367 -0.17036356 1.0780001 6774008
0.0046933419 -0.18585634 1.0810001 6774008
0.0075093396 -0.18585634 1.0810001 4403053
0.0046933419 -0.181163 1.0810001 6774008
0.0075093396 -0.181163 1.0810001 6774008
0.0093866838 -0.181163 1.0810001 6774008
0.0046933419 -0.17834701 1.0810001 6774008
0.0075093396 -0.17834701 1.0810001 6440870
0.010325355 -0.17834701 1.0810001 4736915
0.0050062267 -0.17584388 1.0810001 6774008
0.0075093396 -0.175531 1.0810001 7039202
0.0093866838 -0.175531 1.0810001 3748021
0.026282707 -0.175531 1.0810001 5789078
0.028160051 -0.175531 1.0810001 6774008
0.031288959 -0.17584388 1.0810001 6774008
0.03566939 -0.17459235 1.0810001 6774008
0.022528054 -0.17271498 1.0810001 5197884
0.025344035 -0.17271498 1.0810001 6051226
0.030037396 -0.17271498 1.0810001 6774008
0.039424077 -0.17271498 1.0810001 6774008
0.020650713 -0.17083767 1.0810001 6774008
0.022528054 -0.17083767 1.0810001 3816770
0.043178733 -0.17083767 1.0810001 6774008
0.045994744 -0.1689603 1.0810001 4078269
0.048810761 -0.1689603 1.0810001 6774008
0.033917084 -0.17523839 1.085 6774008
0.025437813 -0.17146981 1.085 5525150
0.028264251 -0.17335407 1.085 5459262
0.031090688 -0.17241195 1.085 6774008
0.037685666 -0.17335407 1.085 6774008
0.041454248 -0.17146981 1.085 6774008
0.028342402 -0.17194392 1.0880001 6774008
0.032121401 -0.17194392 1.0880001 6774008
0.034955613 -0.17383339 1.0880001 6774008
0.039679367 -0.17194392 1.0880001 6774008
0.022673937 -0.17005441 1.0880001 2428023
0.02550815 -0.17005441 1.0880001 6774008
0.030231901 -0.17005441 1.0880001 6774008
0.035999358 -0.17241804 1.0910001 6774008
0.037894066 -0.17241804 1.0910001 6774008
0.022736454 -0.16862857 1.0910001 7820205
0.02463113 -0.16862857 1.0910001 6774008
0.028420551 -0.17052332 1.0910001 3613543
0.031578403 -0.16926014 1.0910001 6774008
0.030315261 -0.16673389 1.0910001 10195391
0.034229688 -0.17305018 1.095 6774008
0.037082173 -0.17114851 1.095 6774008
0.039934661 -0.17114851 1.095 6774008
0.026623094 -0.16924684 1.095 6774008
0.028524751 -0.16924684 1.095 6774008
0.034229688 -0.16924684 1.095 6774008
0.036131345 -0.16924684 1.095 6774008
0.026623094 -0.16734521 1.095 11122118
0.028524751 -0.16734521 1.095 9806786
0.034448508 -0.17224261 1.102 6774008
