# .PCD v0.7 - Point Cloud Data file format
VERSION 0.7
FIELDS x y z rgba
SIZE 4 4 4 4
TYPE F F F U
COUNT 1 1 1 1
WIDTH 521
HEIGHT 1
VIEWPOINT 0 0 0 1 0 0 0
POINTS 521
DATA ascii
0.095356882 -0.19251297 1.036 4144180
0.098055676 -0.19251297 1.036 4275000
0.10075446 -0.19251297 1.036 4341048
0.10255366 -0.19251297 1.036 4276286
0.094457299 -0.19071381 1.036 4012592
0.098055676 -0.19071381 1.036 4144182
0.10075446 -0.19071381 1.036 4472891
0.10255366 -0.19071381 1.036 4801086
0.091758527 -0.1871154 1.036 3946548
0.094457299 -0.188015 1.036 3880751
0.098055676 -0.188015 1.036 4078133
0.10075446 -0.18801501 1.036 4603966
0.10255366 -0.18801501 1.036 4998717
0.091758527 -0.18441662 1.036 4011312
0.094457299 -0.18441664 1.036 3945776
0.098055668 -0.18441664 1.036 3552822
0.10075446 -0.18441662 1.036 4208958
0.10255366 -0.18441662 1.036 4999226
0.094457299 -0.18171786 1.036 3946035
0.098055676 -0.18171786 1.036 3618363
0.10075446 -0.18171786 1.036 4143425
0.10255366 -0.18171786 1.036 4734778
0.098055676 -0.17991865 1.036 3946294
0.10075446 -0.17991865 1.036 4209721
0.091122046 -0.19036385 1.039 3946296
0.104655 -0.19036385 1.039 5130815
0.09021984 -0.18765724 1.039 3881017
0.104655 -0.18765724 1.039 5526842
0.088415429 -0.18495065 1.039 3552306
0.09021984 -0.18495065 1.039 3748914
0.104655 -0.18495065 1.039 5328693
0.1064594 -0.18495065 1.039 5657148
0.091422781 -0.18164262 1.039 3879989
0.094730824 -0.18043967 1.039 3946038
0.104655 -0.18224408 1.039 5064755
0.086861111 -0.19091353 1.0420001 3814452
0.088670723 -0.19091353 1.0420001 3945527
0.10676679 -0.19091353 1.0420001 5329740
0.086861111 -0.18729427 1.0420001 3618610
0.088670723 -0.18819907 1.0420001 3881014
0.10676679 -0.18819907 1.0420001 5920581
0.08595632 -0.18457986 1.0420001 3289648
0.086861111 -0.18277028 1.0420001 3421238
0.088670723 -0.18186547 1.0420001 3486774
0.090480335 -0.18096066 1.0420001 3748408
0.1031476 -0.18096066 1.0420001 4537399
0.10676679 -0.18277028 1.0420001 5394491
0.10133798 -0.17824626 1.0420001 4077620
0.08348158 -0.19055575 1.0450001 3814956
0.0852964 -0.19055575 1.0450001 3749169
0.10888901 -0.19055575 1.0450001 5659228
0.08348158 -0.18874091 1.0450001 3880741
0.0852964 -0.18783352 1.0450001 3552810
0.10888901 -0.18783352 1.0450001 5920330
0.08348158 -0.18420389 1.0450001 3355180
0.0852964 -0.1832965 1.0450001 3355955
0.10949396 -0.18450636 1.0450001 5656901
0.08348158 -0.18148166 1.0450001 3487028
0.0852964 -0.18148166 1.0450001 3486774
0.08711119 -0.18148166 1.0450001 3486776
0.10616677 -0.18148166 1.0450001 4998967
0.099814922 -0.17875946 1.0450001 4142900
0.10344457 -0.17966686 1.0450001 4209204
0.074621104 -0.18928276 1.0480001 3553076
0.076441132 -0.19019279 1.0480001 3552815
0.079171151 -0.19019279 1.0480001 3618097
0.0819012 -0.19019279 1.0480001 4011053
0.11102164 -0.19019279 1.0480001 5986131
0.074621104 -0.18746276 1.0480001 3486510
0.076441132 -0.18746276 1.0480001 3421231
0.079171151 -0.18746276 1.0480001 3421484
0.082811221 -0.18746276 1.0480001 3683874
0.11102164 -0.18746276 1.0480001 6050379
0.074014425 -0.18503605 1.0480001 3420451
0.076441132 -0.18473271 1.0480001 3289374
0.079171151 -0.18473271 1.0480001 3289642
0.0819012 -0.18473271 1.0480001 3485997
0.11223499 -0.18442938 1.0480001 5263689
0.073711082 -0.18200265 1.0480001 3486247
0.076441132 -0.18200265 1.0480001 3420963
0.079171151 -0.18200265 1.0480001 3421230
0.0819012 -0.18200265 1.0480001 3487027
0.092821367 -0.18018265 1.0480001 3879738
0.094641402 -0.18018265 1.0480001 3945786
0.097371414 -0.18018265 1.0480001 4011572
0.10647155 -0.18018265 1.0480001 4736055
0.1092016 -0.18109265 1.0480001 5196602
0.11102164 -0.18200265 1.0480001 5459777
0.070338473 -0.19000521 1.052 3683122
0.073078938 -0.19000521 1.052 3684153
0.11327237 -0.19091871 1.052 4410192
0.067598023 -0.18726477 1.052 3551533
0.070338473 -0.18726476 1.052 3551784
0.073078938 -0.18817826 1.052 3552045
0.11327237 -0.18817826 1.052 5001810
0.11509931 -0.18726477 1.052 4210984
0.070338473 -0.18452431 1.052 3486235
0.073078938 -0.18452431 1.052 3420706
0.11509931 -0.18452431 1.052 4540198
0.065771051 -0.18087037 1.052 3486004
0.067598023 -0.18178385 1.052 3486255
0.070338473 -0.18178384 1.052 3355177
0.073992431 -0.18087037 1.052 3354416
0.076732896 -0.18087037 1.052 3420718
0.079473332 -0.18087037 1.052 3486259
0.082213804 -0.18087037 1.052 3551798
0.084954277 -0.18087037 1.052 3551800
0.08860819 -0.18087037 1.052 3683642
0.09134867 -0.18087037 1.052 3814459
0.11266338 -0.18147936 1.052 5066306
0.067598023 -0.17904337 1.052 3354153
0.071251959 -0.17904337 1.052 3026216
0.074296929 -0.1784344 1.052 3353907
0.076732896 -0.17904337 1.052 3486258
0.079473332 -0.17904337 1.052 3618101
0.084040783 -0.17904337 1.052 3618618
0.094089136 -0.17904337 1.052 3880253
0.065958604 -0.19054705 1.0550001 3355178
0.067790799 -0.19054705 1.0550001 3486253
0.11542754 -0.19054705 1.0550001 3618607
0.065042511 -0.1877988 1.0550001 3487025
0.11787046 -0.18749343 1.0550001 9190941
0.065042518 -0.18413442 1.0550001 3551799
0.067790799 -0.18505053 1.0550001 3552045
0.11542754 -0.18321832 1.0550001 4737828
0.11787046 -0.18382905 1.0550001 7478810
0.12092411 -0.18321832 1.0550001 12636049
0.062294226 -0.18138616 1.0550001 3420697
0.064126424 -0.18138616 1.0550001 3485990
0.065042511 -0.17955397 1.0550001 3354415
0.069622949 -0.17955397 1.0550001 3157534
0.073287331 -0.1777218 1.0550001 3484979
0.07695172 -0.1777218 1.0550001 3749175
0.079699963 -0.1777218 1.0550001 3881015
0.082448252 -0.17955397 1.0550001 3683896
0.086112633 -0.17955397 1.0550001 3618363
0.088860884 -0.17955397 1.0550001 3814973
0.091609165 -0.17955397 1.0550001 3880767
0.10901491 -0.17955397 1.0550001 4867895
0.11176319 -0.17955397 1.0550001 5261629
0.076035619 -0.1758896 1.0550001 4012090
0.07878387 -0.1758896 1.0550001 4210495
0.06155267 -0.18925151 1.0580001 3552554
0.06430877 -0.19108889 1.0580001 3290158
0.1188181 -0.19047642 1.0580001 9655359
0.12126797 -0.18925151 1.0580001 13951645
0.12310537 -0.18925151 1.0580001 16711373
0.12678014 -0.18925151 1.0580001 16579324
0.06155267 -0.18741409 1.0580001 3552298
0.12126797 -0.18741409 1.0580001 14281642
0.12402406 -0.18741409 1.0580001 16645865
0.06155267 -0.18465804 1.0580001 3486246
0.11943057 -0.18557675 1.0580001 10257245
0.12126797 -0.18557675 1.0580001 13491639
0.12310537 -0.18465805 1.0580001 16711376
0.058796603 -0.18098325 1.0580001 3224364
0.061246436 -0.18067703 1.0580001 3289892
0.09738183 -0.18006454 1.0580001 4077114
0.099219233 -0.18006454 1.0580001 4142903
0.10473143 -0.18006454 1.0580001 3947321
0.1065688 -0.18006454 1.0580001 4341564
0.1139184 -0.18006454 1.0580001 4803141
0.11575577 -0.18190196 1.0580001 4542242
0.11851187 -0.18190196 1.0580001 7145243
0.12126797 -0.18190196 1.0580001 12373868
0.12402406 -0.18190196 1.0580001 16711384
0.06430877 -0.17822717 1.0580001 3486001
0.067064866 -0.17822717 1.0580001 3419178
0.070739634 -0.17822717 1.0580001 3353880
0.082682706 -0.17822717 1.0580001 4012602
0.085438803 -0.17822717 1.0580001 4144445
0.090032272 -0.17822717 1.0580001 4472385
0.094625771 -0.17822717 1.0580001 4472641
0.073495738 -0.17638975 1.0580001 3813172
0.076251835 -0.1745524 1.0580001 4541758
0.080232844 -0.17516485 1.0580001 4540743
0.082682706 -0.17547107 1.0580001 4606276
0.084520102 -0.17638975 1.0580001 4606016
0.0552781 -0.18978816 1.0610001 3617836
0.058042016 -0.18978816 1.0610001 3618088
0.12161183 -0.19163074 1.0610001 13687476
0.12437573 -0.19070944 1.0610001 16645867
0.12713963 -0.19163074 1.0610001 16579835
0.0552781 -0.18702424 1.0610001 3355437
0.05804202 -0.18702422 1.0610001 3420459
0.12529702 -0.18610294 1.0610001 16645886
0.12713963 -0.18610294 1.0610001 16645628
0.058042016 -0.18426032 1.0610001 3355692
0.0552781 -0.18241775 1.0610001 3290162
0.057120711 -0.18149644 1.0610001 3224367
0.11608399 -0.18057512 1.0610001 4408099
0.11884791 -0.18057512 1.0610001 6757923
0.12161183 -0.18057512 1.0610001 12111753
0.12437573 -0.18057512 1.0610001 16711392
0.058963321 -0.17873254 1.0610001 3289656
0.061727203 -0.17873254 1.0610001 3355440
0.088444948 -0.17873254 1.0610001 4341311
0.092130169 -0.17873254 1.0610001 4472388
0.097657964 -0.17873254 1.0610001 4538686
0.10042188 -0.17873254 1.0610001 4539194
0.10963489 -0.17873254 1.0610001 4801848
0.11239882 -0.17873254 1.0610001 5130302
0.11516271 -0.17873254 1.0610001 3947573
0.11884791 -0.17873254 1.0610001 7553067
0.12161183 -0.17873254 1.0610001 12835495
0.12437573 -0.17873254 1.0610001 16711400
0.064491116 -0.17688991 1.0610001 3617080
0.067255035 -0.17688991 1.0610001 3485748
0.070018917 -0.17688991 1.0610001 3550748
0.085681066 -0.17596862 1.0610001 4934211
0.088444948 -0.17688991 1.0610001 4933699
0.090287559 -0.17688991 1.0610001 5065029
0.094894081 -0.17688991 1.0610001 5065287
0.097657964 -0.17688991 1.0610001 5062982
0.1105562 -0.17688991 1.0610001 4867635
0.11239882 -0.17688991 1.0610001 5061949
0.11424142 -0.17688991 1.0610001 3880007
0.11884791 -0.17596863 1.0610001 8864333
0.12161183 -0.17596862 1.0610001 13954001
0.079231933 -0.17320471 1.0610001 5132110
0.11976922 -0.17320471 1.0610001 13813183
0.1256513 -0.19217257 1.064 16645885
0.048967063 -0.19032478 1.064 2962995
0.052662671 -0.19032478 1.064 3486519
0.049275033 -0.18786101 1.064 3421233
0.052662671 -0.18755305 1.064 3289903
0.049890973 -0.18478131 1.064 3027501
0.052662671 -0.18478131 1.064 3224365
0.055434402 -0.18478131 1.064 3289904
0.052662671 -0.18293354 1.064 3224367
0.055434402 -0.18108571 1.064 3223601
0.058206134 -0.17831399 1.064 3354934
0.061901741 -0.17739007 1.064 3420726
0.072064713 -0.17739007 1.064 3681832
0.092390664 -0.17739007 1.064 5065288
0.10347756 -0.1792379 1.064 4472890
0.10624927 -0.1792379 1.064 4406848
0.10902099 -0.17739007 1.064 4670261
0.11641223 -0.17739007 1.064 2693679
0.067445196 -0.17554229 1.064 4077117
0.073912531 -0.17554229 1.064 4476214
0.086847238 -0.17554229 1.064 5131590
0.088695027 -0.17554229 1.064 5196616
0.090542853 -0.17554229 1.064 5261642
0.09423849 -0.17554229 1.064 5130061
0.11271663 -0.17554229 1.064 3092285
0.064673468 -0.17369445 1.064 4471880
0.067445196 -0.17277056 1.064 4868690
0.076684266 -0.17369445 1.064 5132104
0.082535669 -0.17307852 1.064 4935240
0.085923329 -0.17277056 1.064 4803126
0.046369001 -0.18918552 1.0680001 3618355
0.046369001 -0.18733077 1.0680001 3551796
0.048223767 -0.18733077 1.0680001 3355187
0.046369001 -0.18547599 1.0680001 3486255
0.048842024 -0.18423951 1.0680001 3158570
0.052860655 -0.18176648 1.0680001 3289646
0.055642802 -0.17991173 1.0680001 3354673
0.057497568 -0.17805696 1.0680001 3485744
0.10015703 -0.17805696 1.0680001 4999236
0.10293919 -0.17805696 1.0680001 4933438
0.1066487 -0.17805696 1.0680001 4669240
0.061207067 -0.17527482 1.0680001 4010300
0.06368009 -0.17558396 1.0680001 4075839
0.070480868 -0.17527482 1.0680001 4540210
0.072953895 -0.17496571 1.0680001 4804154
0.08902847 -0.17434743 1.0680001 5459264
0.091810621 -0.17527482 1.0680001 5326919
0.1159225 -0.17620222 1.0680001 1772609
0.08902847 -0.1724927 1.0680001 3947576
0.09088324 -0.1724927 1.0680001 3749435
0.044639274 -0.18971694 1.0710001 3881269
0.044639274 -0.18785699 1.0710001 3683381
0.044019282 -0.18475704 1.0710001 3486001
0.046499252 -0.18413705 1.0710001 3355947
0.046499252 -0.18227705 1.0710001 3289898
0.049599215 -0.18165708 1.0710001 3289638
0.053009134 -0.18041711 1.0710001 3420206
0.055799101 -0.17855713 1.0710001 3485480
0.059519056 -0.17669716 1.0710001 3747899
0.092998505 -0.17483719 1.0710001 5325637
0.10415833 -0.17669716 1.0710001 4276288
0.10694827 -0.17669716 1.0710001 3750961
0.10973822 -0.17576718 1.0710001 2695239
0.11221819 -0.17545718 1.0710001 1970782
0.11531816 -0.17483719 1.0710001 590227
0.11810809 -0.17483719 1.0710001 3480976
0.074398801 -0.17297724 1.0710001 5262156
0.076258779 -0.17297724 1.0710001 5261905
0.040101379 -0.18745059 1.074 3879735
0.042899124 -0.18745059 1.074 3748916
0.0373036 -0.18465284 1.074 3617589
0.040101379 -0.18465284 1.074 3682872
0.0373036 -0.18185505 1.074 3485999
0.040101379 -0.18185507 1.074 3551285
0.043831721 -0.18185505 1.074 3420210
0.0466295 -0.18092248 1.074 3355433
0.048494689 -0.18092248 1.074 3420704
0.040101379 -0.17905727 1.074 3683125
0.043831721 -0.1781247 1.074 3551029
0.0466295 -0.1781247 1.074 3485746
0.049427286 -0.17905727 1.074 3551532
0.052225027 -0.17905727 1.074 3551539
0.05502281 -0.1781247 1.074 3615782
0.057820588 -0.17719212 1.074 3680813
0.070876829 -0.17346177 1.074 5197135
0.072742015 -0.17346177 1.074 5262669
0.11284339 -0.17346177 1.074 7620529
0.11564118 -0.17346177 1.074 8092382
0.031826168 -0.1890848 1.0780001 3356469
0.034634337 -0.1890848 1.0780001 3749432
0.037442535 -0.1890848 1.0780001 4011325
0.029954035 -0.18721266 1.0780001 3750711
0.031826168 -0.18721266 1.0780001 3749173
0.034634337 -0.18721266 1.0780001 3748916
0.037442535 -0.18721266 1.0780001 3814201
0.029329991 -0.18471651 1.0780001 3683644
0.031826168 -0.18440448 1.0780001 3617586
0.034634337 -0.18440446 1.0780001 3486511
0.029954035 -0.18159631 1.0780001 3617327
0.031826168 -0.18159631 1.0780001 3551532
0.034634337 -0.18159631 1.0780001 3355178
0.034634337 -0.17972416 1.0780001 3355181
0.037442535 -0.17878811 1.0780001 3420978
0.040250733 -0.17785206 1.0780001 3354934
0.049611367 -0.17785206 1.0780001 3550261
0.052419536 -0.17785206 1.0780001 3680568
0.054291666 -0.17785206 1.0780001 3745835
0.040250733 -0.17504385 1.0780001 3355192
0.043994963 -0.17504385 1.0780001 3816246
0.046803169 -0.17504385 1.0780001 3948342
0.049611367 -0.1759799 1.0780001 3550008
0.054291666 -0.1759799 1.0780001 3942453
0.026282707 -0.18773365 1.0810001 3880772
0.028160051 -0.18773365 1.0810001 3815230
0.025656927 -0.18460476 1.0810001 3946309
0.028160051 -0.18397897 1.0810001 3683644
0.026282707 -0.181163 1.0810001 3814707
0.028160051 -0.181163 1.0810001 3683119
0.030976068 -0.18022431 1.0810001 3486247
0.030976068 -0.17834701 1.0810001 2190423
0.034730718 -0.17834701 1.0810001 3355184
0.03566939 -0.175531 1.0810001 2190423
0.037546735 -0.175531 1.0810001 3354936
0.049749434 -0.17459235 1.0810001 4345148
0.052565414 -0.17646964 1.0810001 3745085
0.056320101 -0.17646964 1.0810001 3877677
0.07133878 -0.17271498 1.0810001 5459264
0.073216118 -0.17271498 1.0810001 5458751
0.075093471 -0.17271498 1.0810001 5392959
0.022611415 -0.1874862 1.085 3946551
0.024495669 -0.1874862 1.085 3946304
0.022611415 -0.18465975 1.085 3947060
0.020727124 -0.18183336 1.085 4012593
0.022611415 -0.18183336 1.085 4011817
0.024495669 -0.18183336 1.085 4011566
0.022611415 -0.17806478 1.085 3880483
0.025751863 -0.17837882 1.085 2190423
0.028264251 -0.17806478 1.085 2190423
0.031090688 -0.17712262 1.085 3354411
0.033917084 -0.17712262 1.085 3355698
0.05841279 -0.17712262 1.085 3878195
0.060297083 -0.17712262 1.085 4009786
0.02637996 -0.17523839 1.085 3487028
0.028264251 -0.17523839 1.085 3617844
0.031090688 -0.17523839 1.085 2190423
0.033917084 -0.17523839 1.085 2190423
0.054644208 -0.17523839 1.085 4540735
0.031090688 -0.17335407 1.085 2903112
0.035801377 -0.17335407 1.085 3945276
0.037685666 -0.17241195 1.085 4211520
0.039569959 -0.17241195 1.085 4211520
0.046164941 -0.17335407 1.085 5001538
0.049933523 -0.17335407 1.085 5132098
0.067834206 -0.17241195 1.085 4803132
0.070346586 -0.17209791 1.085 4539191
0.073487043 -0.17146981 1.085 3681842
0.075371332 -0.17146981 1.085 3219506
0.020784434 -0.18705985 1.0880001 3947066
0.019839685 -0.18517034 1.0880001 3881783
0.020784434 -0.17855713 1.0880001 2190423
0.0245634 -0.17761238 1.0880001 2190423
0.020784434 -0.17572291 1.0880001 3814973
0.022673937 -0.17572291 1.0880001 3618359
0.0245634 -0.17572291 1.0880001 3421749
0.052905798 -0.17572291 1.0880001 4410179
0.056684803 -0.17572291 1.0880001 4606779
0.022673937 -0.17288865 1.0880001 3619393
0.025823068 -0.17320357 1.0880001 2776653
0.028342402 -0.17288865 1.0880001 3948091
0.031176651 -0.17194392 1.0880001 4279362
0.034010865 -0.17383339 1.0880001 2190423
0.041568868 -0.17288865 1.0880001 4540224
0.043458335 -0.17383339 1.0880001 4802625
0.028342402 -0.17005441 1.0880001 5000266
0.013262938 -0.18757565 1.0910001 3880478
0.016104968 -0.18757565 1.0910001 4078138
0.018947033 -0.18757565 1.0910001 4012602
0.013262938 -0.18568091 1.0910001 3879215
0.016104968 -0.18473357 1.0910001 3882049
0.018947033 -0.18378624 1.0910001 3947319
0.017052323 -0.18189152 1.0910001 4012867
0.018947033 -0.18189152 1.0910001 4012858
0.018947033 -0.17904946 1.0910001 2190423
0.020841744 -0.17431271 1.0910001 2190423
0.05305168 -0.17431271 1.0910001 5132103
0.055893745 -0.17431271 1.0910001 5263172
0.020841744 -0.17241804 1.0910001 4078405
0.02463113 -0.17241804 1.0910001 3816511
0.035052001 -0.17241804 1.0910001 4410688
0.047367588 -0.17241804 1.0910001 5198413
0.049262296 -0.17241804 1.0910001 5197640
0.051157009 -0.17241804 1.0910001 5131850
0.020841744 -0.17052332 1.0910001 2190423
0.022736454 -0.16957594 1.0910001 4080694
0.025578484 -0.16957594 1.0910001 2646866
0.028420551 -0.16862857 1.0910001 4409941
0.031262618 -0.17052332 1.0910001 2190423
0.022736454 -0.16673389 1.0910001 2896746
0.02463113 -0.16673389 1.0910001 2190423
0.007606593 -0.18636169 1.095 4010345
0.010459078 -0.18636169 1.095 1977648
0.011409908 -0.18446007 1.095 3938106
0.013311565 -0.18446007 1.095 3222849
0.0057049356 -0.18160757 1.095 9351584
0.007606593 -0.18160757 1.095 11987941
0.010776022 -0.18192452 1.095 5131610
0.013311565 -0.18160757 1.095 2563646
0.015847072 -0.18129066 1.095 3165005
0.011409908 -0.1787551 1.095 2190423
0.013311565 -0.1787551 1.095 2190423
0.016164016 -0.1787551 1.095 3101005
0.011409908 -0.17685348 1.095 2190423
0.013311565 -0.17685348 1.095 1971537
0.016164016 -0.17685348 1.095 3035467
0.019016501 -0.17590263 1.095 3035469
0.058951158 -0.17685348 1.095 4738362
0.019016501 -0.17114851 1.095 2190423
0.053246189 -0.17305018 1.095 5197388
0.055147845 -0.17305018 1.095 5262923
0.057049502 -0.17305018 1.095 5131851
0.020918159 -0.16924684 1.095 2190423
0.020918159 -0.16734521 1.095 2190423
0.0047671502 -0.18687227 1.098 9159887
0.0057205656 -0.18496543 1.098 11590617
0.0076274332 -0.18496543 1.098 8170423
0.0095343003 -0.18496543 1.098 4684920
0.0095343003 -0.18115173 1.098 2190423
0.0057205656 -0.17829141 1.098 9418154
0.0076274332 -0.17829141 1.098 2190423
0.0095343003 -0.17829141 1.098 4948868
0.061972953 -0.177338 1.098 4739132
0.064833231 -0.177338 1.098 4804933
0.066740103 -0.177338 1.098 4935761
0.0076274332 -0.17543112 1.098 13300734
0.010487733 -0.17543112 1.098 2190423
0.013348035 -0.17543112 1.098 1452629
0.016208299 -0.17543112 1.098 2190423
0.059112668 -0.17543112 1.098 5656635
0.064833231 -0.17543112 1.098 5329992
0.066740103 -0.17543112 1.098 5394759
0.010487733 -0.17352429 1.098 7434138
0.013348035 -0.17257085 1.098 1455703
0.016208299 -0.17257084 1.098 3359807
0.019068601 -0.17352429 1.098 4143942
0.059112668 -0.17352429 1.098 5066556
0.064833231 -0.17352429 1.098 4410187
0.066740103 -0.17352429 1.098 4278590
0.011441167 -0.16971052 1.098 6905546
0.013348035 -0.16971052 1.098 1966439
0.016208299 -0.16971052 1.098 2635281
0.019068601 -0.16971052 1.098 3162424
0.030509768 -0.16971052 1.098 4737621
0.011441167 -0.16780369 1.098 2190423
0.013348035 -0.16780369 1.098 3894704
0.016208299 -0.16780369 1.098 1658477
0.019068601 -0.16780369 1.098 2190423
0.061241828 -0.17511332 1.102 5066544
0.063155606 -0.17607021 1.102 5329213
0.03253473 -0.17032878 1.102 5065297
0.053732455 -0.17271151 1.105 5262398
0.055651478 -0.17271151 1.105 5393724
0.05853001 -0.17271151 1.105 4671547
0.034542289 -0.17079246 1.105 2190423
0.011514108 -0.16695443 1.105 2190423
0.013433132 -0.16695443 1.105 10280953
0.016311631 -0.16695443 1.105 5342111
0.034667324 -0.17333671 1.1090001 2190423
0.038519267 -0.17333671 1.1090001 5066568
0.040445238 -0.17333671 1.1090001 5065281
0.04237121 -0.17333671 1.1090001 5131578
0.05392696 -0.17141071 1.1090001 3159088
0.019259633 -0.1675588 1.1090001 2190423
0.044456914 -0.17589484 1.113 5001290
0.046389833 -0.17589484 1.113 5067090
0.036725283 -0.17396191 1.113 5066311
0.040591121 -0.17202897 1.113 4409920
0.043490477 -0.17299545 1.113 4737594
0.049289212 -0.17202897 1.113 3948609
0.052188586 -0.17299545 1.113 4277052
0.046514876 -0.1744308 1.1160001 5263179
0.049422063 -0.1744308 1.1160001 5262917
0.044576745 -0.17249265 1.1160001 4211771
0.046514876 -0.17249265 1.1160001 4145989
0.056205474 -0.17249265 1.1160001 2895662
0.044576745 -0.17055458 1.1160001 3284819
0.046514876 -0.17055458 1.1160001 3087193
0.049422063 -0.17055458 1.1160001 2635371
0.052329257 -0.17055458 1.1160001 1717629
0.054267347 -0.17055458 1.1160001 1052296
0.042791482 -0.17116587 1.12 3548237
0.056406926 -0.17116587 1.12 464254
0.058352001 -0.17116587 1.12 2825589
0.043764003 -0.16922079 1.12 5964137
0.046681594 -0.16922079 1.12 6822509
0.049599208 -0.16922079 1.12 7421335
0.052516818 -0.16922079 1.12 8019394
0.054461852 -0.16922079 1.12 8289504
0.044736519 -0.16727576 1.12 9473199
0.046681594 -0.16727576 1.12 10526897
0.048626669 -0.16727576 1.12 11645632
