# .PCD v0.7 - Point Cloud Data file format
VERSION 0.7
FIELDS x y z rgba
SIZE 4 4 4 4
TYPE F F F U
COUNT 1 1 1 1
WIDTH 387
HEIGHT 1
VIEWPOINT 0 0 0 1 0 0 0
POINTS 387
DATA ascii
-0.010296683 -0.16287501 1.0780001 14271811
-0.0074885353 -0.16287501 1.0780001 3814972
-0.0056319959 -0.16332828 1.0810001 14271811
-0.079139918 -0.17900693 1.085 6713274
-0.077255592 -0.17712262 1.085 14271811
-0.081024177 -0.17523839 1.085 12898021
-0.079139918 -0.17523839 1.085 14271811
-0.077255592 -0.17523839 1.085 14271811
-0.0075371624 -0.17146981 1.085 3025929
-0.0075371624 -0.1695855 1.085 3026200
-0.0094214166 -0.16581695 1.085 3288883
-0.0075371624 -0.16581695 1.085 3157553
-0.0056528356 -0.16581695 1.085 3092276
-0.0094474675 -0.18139134 1.0880001 3092271
-0.0075580021 -0.18139134 1.0880001 3092268
-0.0047237333 -0.18139134 1.0880001 3092267
-0.0018894646 -0.18139134 1.0880001 3092267
-0.077469207 -0.17950189 1.0880001 1776246
-0.060463801 -0.17950189 1.0880001 3354422
-0.0094474675 -0.17855713 1.0880001 8681529
-0.0075580021 -0.17855713 1.0880001 14271811
-0.0047237333 -0.17855713 1.0880001 14271811
-0.0018894646 -0.17855713 1.0880001 3157803
0.0012596671 -0.17887205 1.0880001 6774842
-0.070856005 -0.17572291 1.0880001 14271811
-0.067076996 -0.17572291 1.0880001 3420461
-0.062353268 -0.17572291 1.0880001 3485735
-0.013226468 -0.17572291 1.0880001 3091485
-0.0094474675 -0.17572291 1.0880001 3026203
-0.0075580021 -0.17572291 1.0880001 3223068
-0.0047237333 -0.17572291 1.0880001 3288613
-0.0018894646 -0.17572291 1.0880001 3091755
0.0018895005 -0.17572291 1.0880001 3157040
-0.076524474 -0.17288865 1.0880001 13225098
-0.073690273 -0.17288865 1.0880001 8160605
-0.070856005 -0.17288865 1.0880001 8417331
-0.06613227 -0.17288865 1.0880001 8944445
-0.061408535 -0.17194392 1.0880001 3420209
-0.05574007 -0.17288865 1.0880001 8747575
-0.018894935 -0.17194392 1.0880001 2764047
-0.015745779 -0.17257375 1.0880001 6643500
-0.013226468 -0.17288865 1.0880001 3091489
-0.0103922 -0.17288865 1.0880001 11443770
-0.0075580021 -0.17383339 1.0880001 14271811
-0.0047237333 -0.17288865 1.0880001 14271811
-0.0018894646 -0.17288865 1.0880001 2894620
0.0018895005 -0.17383339 1.0880001 3222565
-0.076524474 -0.17005441 1.0880001 12836829
-0.073690273 -0.17005441 1.0880001 2377076
-0.071800731 -0.17005441 1.0880001 14271811
-0.018894935 -0.17005441 1.0880001 14271811
-0.016060701 -0.17005441 1.0880001 8550452
-0.013226468 -0.17005441 1.0880001 3091497
-0.0103922 -0.17005441 1.0880001 8681777
-0.0075580021 -0.16816488 1.0880001 14271811
-0.0050386447 -0.16942458 1.0880001 6709038
-0.0018894646 -0.1643859 1.0880001 14271811
-0 -0.1643859 1.0880001 14271811
0.00094735529 -0.18189152 1.0910001 3092270
0.0047367583 -0.18189152 1.0910001 3354421
0.0075788065 -0.18189152 1.0910001 3354153
0.011368227 -0.18189152 1.0910001 3354408
0.013262938 -0.18189152 1.0910001 3354412
0.017052323 -0.18189152 1.0910001 3420462
0.019894388 -0.18189152 1.0910001 3420204
0.022736454 -0.18189152 1.0910001 3552043
0.025578484 -0.18189152 1.0910001 3617327
0.028420551 -0.18189152 1.0910001 3420461
0.030315261 -0.18189152 1.0910001 3214889
-0.075788133 -0.17810211 1.0910001 14271811
-0.073893458 -0.17810211 1.0910001 3350329
-0.071051374 -0.17810211 1.0910001 3419690
-0.067261949 -0.17810211 1.0910001 8878904
-0.064419948 -0.17810211 1.0910001 3486247
-0.06157786 -0.17810211 1.0910001 14271811
-0.058735777 -0.17904946 1.0910001 3288879
-0.055893764 -0.17904948 1.0910001 8813111
-0.052104346 -0.17904946 1.0910001 6116658
-0.049262259 -0.17904946 1.0910001 3354928
-0.046420246 -0.17904946 1.0910001 8747574
-0.043578167 -0.17904946 1.0910001 8813109
-0.040736116 -0.17904946 1.0910001 8812854
-0.037894066 -0.17999683 1.0910001 3484972
-0.03505202 -0.17999683 1.0910001 3551017
-0.032209974 -0.17999683 1.0910001 3551781
-0.02463113 -0.17904946 1.0910001 8747309
-0.022736454 -0.17999683 1.0910001 3091988
-0.019894371 -0.17904946 1.0910001 8681774
-0.016104987 -0.17904946 1.0910001 6050858
-0.013262938 -0.17904946 1.0910001 3092260
-0.011368191 -0.17904946 1.0910001 8681782
-0 -0.17810211 1.0910001 14271811
0.0047367583 -0.17904948 1.0910001 14271811
0.0075788065 -0.17904946 1.0910001 8682036
0.011368227 -0.17904946 1.0910001 14271811
0.017052323 -0.17999683 1.0910001 3617066
0.019894388 -0.17904946 1.0910001 14271811
0.022736454 -0.17904946 1.0910001 14271811
0.025578484 -0.17904946 1.0910001 14271811
0.028420551 -0.17904946 1.0910001 14271811
0.030315261 -0.17904946 1.0910001 14271811
0.035999358 -0.17810211 1.0910001 14271811
0.037894066 -0.17810211 1.0910001 14939077
-0.075788133 -0.17620744 1.0910001 14271811
-0.073893458 -0.17620744 1.0910001 2497855
-0.068209291 -0.17431271 1.0910001 3288631
-0.064419948 -0.17526007 1.0910001 3486246
-0.061262082 -0.17494428 1.0910001 10654523
-0.058735777 -0.17526007 1.0910001 3420202
-0.055893764 -0.17620744 1.0910001 3354663
-0.052104346 -0.17526007 1.0910001 5985585
-0.049262259 -0.17526007 1.0910001 3158057
-0.046420246 -0.17526007 1.0910001 11509566
-0.043578167 -0.17526007 1.0910001 8747320
-0.040736116 -0.17526007 1.0910001 8747320
-0.037894066 -0.17526007 1.0910001 3222574
-0.03505202 -0.17526007 1.0910001 8681774
-0.031262599 -0.17526007 1.0910001 14271811
-0.028420551 -0.17526007 1.0910001 8681524
-0.025578503 -0.17526007 1.0910001 14271811
-0.022736454 -0.17526007 1.0910001 2763552
-0.019894371 -0.17526007 1.0910001 14271811
-0.016420778 -0.17557585 1.0910001 2894879
-0.011368191 -0.17620744 1.0910001 3025946
-0 -0.17526007 1.0910001 14271811
0.0047367583 -0.17526007 1.0910001 8615993
0.0075788065 -0.17526007 1.0910001 14271811
0.010736657 -0.17557585 1.0910001 6905908
0.020841744 -0.17526007 1.0910001 8682036
0.022736454 -0.17526007 1.0910001 8747572
0.025578484 -0.17526007 1.0910001 8813363
0.028420551 -0.17526007 1.0910001 3682850
0.030946832 -0.17494428 1.0910001 5459498
0.035052001 -0.17526007 1.0910001 14007887
-0.068209291 -0.17241804 1.0910001 3223870
-0.064419948 -0.17241804 1.0910001 3551795
-0.058735777 -0.17241804 1.0910001 3419950
-0.052104346 -0.17241804 1.0910001 3026989
-0.049262259 -0.17241804 1.0910001 14271811
-0.046420246 -0.17241804 1.0910001 14271811
-0.043578167 -0.17241804 1.0910001 3222565
-0.040736116 -0.17241804 1.0910001 8681526
-0.037894066 -0.17241804 1.0910001 3156781
-0.03505202 -0.17241804 1.0910001 3026218
-0.031262599 -0.17241804 1.0910001 2764854
-0.028420551 -0.17241804 1.0910001 2960948
-0.025578503 -0.17241804 1.0910001 8550708
-0.022736454 -0.17241804 1.0910001 2829856
-0.020841708 -0.17241804 1.0910001 2764311
0.00094735529 -0.17241804 1.0910001 8681262
0.0047367583 -0.17241804 1.0910001 3157031
0.0075788065 -0.17241804 1.0910001 3091496
0.011368227 -0.17241804 1.0910001 3222575
0.015157613 -0.17241804 1.0910001 3222847
0.022736454 -0.17241804 1.0910001 3354379
0.02652584 -0.17241804 1.0910001 14271811
0.028420551 -0.17241804 1.0910001 3682596
0.032209974 -0.17241804 1.0910001 131363
0.035999358 -0.17241804 1.0910001 13414010
-0.076735467 -0.16862857 1.0910001 15196564
-0.073893458 -0.16862857 1.0910001 3098226
-0.070735596 -0.16926014 1.0910001 14271811
-0.067261949 -0.16957594 1.0910001 11444545
-0.064419948 -0.16957594 1.0910001 3486257
-0.061577864 -0.16957594 1.0910001 14271811
-0.058735777 -0.16957594 1.0910001 3288877
-0.055893764 -0.16957593 1.0910001 14271811
-0.052104346 -0.16957594 1.0910001 11444022
-0.049262259 -0.16957594 1.0910001 8550706
-0.046420246 -0.16957593 1.0910001 11443771
-0.043578167 -0.17052332 1.0910001 14271811
-0.040736116 -0.17052332 1.0910001 8747318
-0.035999395 -0.17052332 1.0910001 14271811
-0.03094681 -0.16989174 1.0910001 10261051
-0.028420551 -0.16957594 1.0910001 3025460
-0.025578503 -0.16957594 1.0910001 14271811
-0.022736454 -0.16957594 1.0910001 2960684
-0.020210151 -0.16926014 1.0910001 14271811
-0.016104987 -0.16862857 1.0910001 14271811
-0.013262938 -0.16862857 1.0910001 3091503
-0.010420853 -0.16862857 1.0910001 14271811
-0.0037894212 -0.16862857 1.0910001 14271811
-0.0018946745 -0.16957594 1.0910001 2894892
0.00094735529 -0.16957594 1.0910001 8681016
0.0047367583 -0.16957593 1.0910001 14271811
0.0075788065 -0.17052332 1.0910001 3025962
0.035999358 -0.17052332 1.0910001 13613181
-0.076735467 -0.16673389 1.0910001 12968416
-0.073893458 -0.16673389 1.0910001 3822967
-0.071051374 -0.16673389 1.0910001 3019038
-0.067261949 -0.16673389 1.0910001 3159355
-0.064419948 -0.16673389 1.0910001 3421747
-0.06157786 -0.16673389 1.0910001 3354675
-0.058735777 -0.16673389 1.0910001 3157812
-0.056841101 -0.16673389 1.0910001 3157300
-0.028420551 -0.16673389 1.0910001 3353914
-0.022736454 -0.16673389 1.0910001 3157554
-0.019894371 -0.16673389 1.0910001 3092019
-0.016104987 -0.16673389 1.0910001 8682044
-0.013262938 -0.16673389 1.0910001 3092534
-0.011368191 -0.16673389 1.0910001 14271811
-0.0037894212 -0.16673389 1.0910001 3092535
-0.0018946745 -0.16673389 1.0910001 3092276
0.00094735529 -0.16673389 1.0910001 3091760
0.0047367583 -0.16673389 1.0910001 14271811
-0.064419948 -0.16483918 1.0910001 3617334
-0.035999395 -0.16483918 1.0910001 14271811
0.0012631405 -0.16357607 1.0910001 7631416
-0.030426372 -0.18065678 1.095 3485986
-0.028524751 -0.18065678 1.095 3420447
-0.02662313 -0.18065678 1.095 3288861
0.0095082503 -0.18065678 1.095 14271811
0.013311565 -0.18065678 1.095 3354409
0.015213186 -0.18065678 1.095 14271811
0.032328065 -0.18160757 1.095 2492962
0.034229688 -0.18160757 1.095 11178557
0.037082173 -0.18065678 1.095 14341240
-0.037082188 -0.1787551 1.095 8747320
-0.034229688 -0.1787551 1.095 14271811
-0.031377219 -0.1787551 1.095 14271811
-0.028524751 -0.1787551 1.095 3157282
-0.02662313 -0.1787551 1.095 14271811
-0.022819815 -0.1787551 1.095 2960666
0.0095082503 -0.1787551 1.095 14271811
0.013311565 -0.1787551 1.095 3354411
0.016164016 -0.1787551 1.095 9075254
0.032328065 -0.1787551 1.095 786708
0.034229688 -0.1787551 1.095 14271811
0.0095082503 -0.17495181 1.095 14271811
0.013311565 -0.17590263 1.095 3354414
0.016164016 -0.17590263 1.095 6182193
0.019016501 -0.17590263 1.095 8813108
0.032328065 -0.17685348 1.095 459028
-0.038033001 -0.17114851 1.095 3091249
-0.034229688 -0.17114851 1.095 14271811
0.010142136 -0.1717824 1.095 10523195
0.013311565 -0.17209935 1.095 3288113
0.01648096 -0.1717824 1.095 6774841
0.019967329 -0.17209934 1.095 8747826
0.022819815 -0.17114851 1.095 14271811
0.025355322 -0.1717824 1.095 7037234
0.028524751 -0.17114851 1.095 3616551
0.031060293 -0.1717824 1.095 5393708
0.034229688 -0.17209935 1.095 10514995
-0.043737937 -0.16924684 1.095 3156521
-0.040885471 -0.16924684 1.095 14271811
-0.037082188 -0.16924684 1.095 8615484
-0.034229688 -0.16924684 1.095 14271811
-0.032328065 -0.16924684 1.095 2698537
0.007606593 -0.16924684 1.095 3157036
0.010459078 -0.16924684 1.095 8615728
0.013311565 -0.16924684 1.095 14271811
0.016164016 -0.16924684 1.095 8747324
0.019967329 -0.16924684 1.095 14271811
0.022819815 -0.16924684 1.095 14271811
0.025672264 -0.16924684 1.095 14271811
0.028524751 -0.16924684 1.095 3681835
0.031377237 -0.16924684 1.095 7234354
-0.076066002 -0.16544354 1.095 14271811
-0.073213533 -0.16544354 1.095 9213023
-0.070361063 -0.16544354 1.095 14271811
-0.067508563 -0.16544354 1.095 8683330
-0.061803628 -0.16544354 1.095 14271811
-0.058000311 -0.16544354 1.095 8878654
-0.055147879 -0.16639438 1.095 8747319
-0.052612316 -0.16671133 1.095 3092010
-0.049442872 -0.16639438 1.095 3092273
-0.04659044 -0.16639438 1.095 8615992
-0.043737937 -0.16639438 1.095 3222836
-0.040885471 -0.16639438 1.095 11378239
-0.037399128 -0.16671133 1.095 3025466
-0.034229688 -0.16639438 1.095 3223354
-0.031377219 -0.16639438 1.095 11444032
-0.028524751 -0.16544354 1.095 3814721
-0.025672283 -0.16639438 1.095 8747069
-0.022819815 -0.16544354 1.095 3683381
-0.01996731 -0.16544354 1.095 14271811
-0.01711488 -0.16544354 1.095 3683644
0.0047541251 -0.16544354 1.095 14271811
0.007606593 -0.16639438 1.095 3553839
0.010459078 -0.16734521 1.095 14271811
0.013311565 -0.16734521 1.095 3551791
0.015847072 -0.16671133 1.095 10655041
0.022819815 -0.16734521 1.095 14271811
0.025672264 -0.16734521 1.095 8944703
-0.064656131 -0.16354191 1.095 3878214
-0.01996731 -0.16354191 1.095 14271811
0.0047541251 -0.16354191 1.095 14271811
0.007606593 -0.16354191 1.095 4541758
0.0057049356 -0.16164024 1.095 14271811
0.007606593 -0.16164024 1.095 14271811
-0.051485237 -0.1658968 1.098 14271811
0.010487733 -0.1658968 1.098 14271811
0.013348035 -0.1658968 1.098 14271811
0.017161733 -0.1658968 1.098 4078917
0.019704223 -0.16716807 1.098 14271811
0.0257426 -0.1658968 1.098 14271811
0.0286029 -0.16685024 1.098 9076798
0.030509768 -0.16685024 1.098 8155190
-0.067375712 -0.16335434 1.098 10590020
-0.0286029 -0.16303653 1.098 9273922
-0.025742618 -0.16303653 1.098 14271811
-0.022882335 -0.16398996 1.098 4211260
0.0095343003 -0.16303653 1.098 14271811
0.016208299 -0.16398996 1.098 4867915
-0.066740103 -0.16017626 1.098 14271811
-0.030509733 -0.16017626 1.098 4933940
-0.0286029 -0.16017626 1.098 14271811
-0.025742618 -0.16017626 1.098 9668414
0.02105188 -0.16650116 1.102 14271811
-0.070810862 -0.16458738 1.102 14271811
-0.068897016 -0.16267355 1.102 14271811
-0.047845166 -0.16458738 1.102 14271811
-0.03253473 -0.16363046 1.102 9273921
0.019138068 -0.16458738 1.102 14271811
-0.076760672 -0.16503544 1.105 14271811
-0.073882148 -0.16503544 1.105 9476451
-0.06140855 -0.16503544 1.105 14271811
-0.058529995 -0.16503544 1.105 9076546
-0.051813468 -0.16503544 1.105 14271811
-0.049894404 -0.16503544 1.105 3685700
-0.030704238 -0.16503544 1.105 4276545
0.011514108 -0.16503544 1.105 14271811
0.013433132 -0.16503544 1.105 5392458
0.023028215 -0.16695443 1.105 4013642
-0.076760672 -0.1631164 1.105 11263713
-0.073882148 -0.1631164 1.105 14271811
-0.071003638 -0.1631164 1.105 2632511
-0.030704238 -0.1631164 1.105 14271811
-0.073882148 -0.16023789 1.105 9144962
-0.070044108 -0.16023789 1.105 8088137
-0.067165583 -0.15927838 1.105 3949606
-0.064606912 -0.15991805 1.105 7696959
-0.064287066 -0.15735938 1.105 14271811
-0.063556775 -0.16563286 1.1090001 14271811
-0.055852968 -0.16563286 1.1090001 3553604
-0.015407693 -0.1675588 1.1090001 14271811
-0.013481759 -0.1675588 1.1090001 3880509
-0.054121464 -0.16623028 1.113 14271811
-0.04638987 -0.16623028 1.113 3751480
-0.057987299 -0.16429734 1.113 14271811
-0.052188586 -0.16429734 1.113 14271811
-0.050255634 -0.1633309 1.113 4277320
-0.044576745 -0.16667834 1.1160001 3817274
-0.034886144 -0.16667834 1.1160001 4144959
-0.064604007 -0.16409415 1.1160001 10984521
-0.061050773 -0.16377114 1.1160001 9406014
-0.058143605 -0.1628021 1.1160001 14271811
-0.056205511 -0.16377114 1.1160001 9471299
-0.052329257 -0.1628021 1.1160001 14271811
-0.048453003 -0.16474018 1.1160001 14271811
-0.04651491 -0.16474018 1.1160001 14271811
-0.060081691 -0.16086395 1.1160001 14271811
-0.058143605 -0.16086395 1.1160001 3684923
-0.056205511 -0.16086395 1.1160001 3553849
-0.060081691 -0.15892586 1.1160001 14271811
-0.058143605 -0.15892586 1.1160001 2693472
-0.056205511 -0.15892586 1.1160001 14271811
-0.054461852 -0.16533065 1.12 14271811
-0.043764003 -0.1663032 1.12 14271811
-0.040846374 -0.16727576 1.12 14271811
-0.054461852 -0.16338561 1.12 4539711
-0.048626669 -0.16338561 1.12 14271811
-0.046681631 -0.16338561 1.12 14271811
-0.054461852 -0.16046801 1.12 14271811
-0.052516818 -0.16144052 1.12 3487028
-0.049599186 -0.16144052 1.12 14271811
-0.042906102 -0.16577351 1.123 14271811
-0.039005533 -0.1677238 1.123 3948095
-0.037055288 -0.1677238 1.123 4079167
-0.044856347 -0.16382325 1.123 14271811
-0.046806671 -0.16187295 1.123 14271811
-0.044856347 -0.16187295 1.123 14271811
-0.040123064 -0.16636397 1.1270001 14271811
-0.043058928 -0.16342816 1.1270001 8681780
-0.037319262 -0.16695443 1.131 14271811
-0.035355046 -0.16695443 1.131 14271811
-0.041247543 -0.1640082 1.131 9471546
-0.039387602 -0.16542794 1.1340001 14271811
-0.039387602 -0.16345854 1.1340001 14271811
-0.037550237 -0.16601145 1.138 4672303
-0.034585718 -0.16601145 1.138 9602873
-0.040514685 -0.1620588 1.138 1313384
-0.037550237 -0.1640351 1.138 14271811
-0.037682228 -0.16262843 1.1420001 14271811
-0.039804399 -0.16120781 1.146 14271811
-0.037814211 -0.16120781 1.146 7832503
