# .PCD v0.7 - Point Cloud Data file format
VERSION 0.7
FIELDS x y z rgba
SIZE 4 4 4 4
TYPE F F F U
COUNT 1 1 1 1
WIDTH 1031
HEIGHT 1
VIEWPOINT 0 0 0 1 0 0 0
POINTS 1031
DATA ascii
-0.12604725 -0.099511005 0.95500004 1056832
-0.12438875 -0.099511005 0.95500004 7504462
-0.12190098 -0.10034028 0.95500004 4149336
-0.12660012 -0.097299635 0.9550001 4804409
-0.12438875 -0.097023219 0.95500004 4149312
-0.12190098 -0.097023219 0.95500004 4149062
-0.12604725 -0.094535433 0.95500004 5989406
-0.12438875 -0.094535433 0.95500004 6384430
-0.12273026 -0.094535433 0.95500004 6253119
-0.12604725 -0.092876941 0.95500004 1056832
-0.12438875 -0.092876941 0.95500004 5660462
-0.11812457 -0.12644325 0.95800006 10058081
-0.12394765 -0.12311575 0.95800006 5389627
-0.11867917 -0.12367033 0.95800006 4078410
-0.11646087 -0.12311575 0.95800006 10124658
-0.12311581 -0.12145206 0.95800006 9595991
-0.11895645 -0.12145206 0.95800006 8748140
-0.11646087 -0.12145206 0.95800006 8027008
-0.12394765 -0.11895645 0.95800006 3288640
-0.12145204 -0.1181246 0.95800006 8682604
-0.11895645 -0.11895645 0.95800006 1056832
-0.11646087 -0.1197883 0.95800006 5991800
-0.12810697 -0.11479715 0.95800006 9322015
-0.12394765 -0.115629 0.95800006 7358791
-0.12145204 -0.11479715 0.95800006 7889504
-0.11923375 -0.11590629 0.95800006 3619680
-0.1269978 -0.11257884 0.95800006 3811638
-0.12394765 -0.11230155 0.95800006 7225411
-0.12977067 -0.1089741 0.95800006 5056044
-0.12727508 -0.1089741 0.95800006 3024440
-0.12394766 -0.1089741 0.95800006 6897979
-0.12145204 -0.1089741 0.95800006 7760989
-0.11923375 -0.10869682 0.95800006 3952481
-0.11646087 -0.10814226 0.95800006 1056832
-0.12977067 -0.1064785 0.95800006 8926752
-0.12727508 -0.1064785 0.95800006 8341535
-0.12394765 -0.1064785 0.95800006 6642485
-0.12145204 -0.1064785 0.95800006 7240531
-0.11895645 -0.1064785 0.95800006 1056832
-0.11562902 -0.1064785 0.95800006 3687502
-0.13309814 -0.10398293 0.95800006 8867392
-0.13032526 -0.10370564 0.95800006 3549242
-0.12727508 -0.10398293 0.95800006 2764090
-0.12394765 -0.10398293 0.95800006 4148283
-0.12145204 -0.10398293 0.95800006 7241298
-0.11895646 -0.10398293 0.95800006 1056832
-0.11562902 -0.10398293 0.95800006 3490636
-0.11230155 -0.10398293 0.95800006 2371394
-0.13392998 -0.10065548 0.95800006 4862520
-0.13060255 -0.10065548 0.95800006 2762293
-0.12755239 -0.10093278 0.95800006 7299123
-0.1247795 -0.10148735 0.95800006 7570525
-0.11895645 -0.10065548 0.95800006 5268559
-0.11562902 -0.10065548 0.95800006 4544070
-0.11230156 -0.10065548 0.95800006 4409922
-0.10925137 -0.10093278 0.95800006 4538684
-0.13392998 -0.097328007 0.95800006 4730934
-0.13060255 -0.097328007 0.95800006 6436917
-0.12810697 -0.09649615 0.95800006 6184236
-0.11895645 -0.097328007 0.95800006 5202505
-0.11562902 -0.097328007 0.95800006 4543543
-0.11230155 -0.097328007 0.95800006 4275766
-0.10980593 -0.097328007 0.95800006 6108212
-0.13392998 -0.094000563 0.95800006 6043431
-0.13060255 -0.094000563 0.95800006 4338482
-0.12810697 -0.094000556 0.95800006 5265445
-0.12311581 -0.093168706 0.95800006 1056832
-0.12145204 -0.094000556 0.95800006 3556670
-0.11895646 -0.094000563 0.95800006 3095613
-0.1159063 -0.094277844 0.95800006 4998712
-0.11230156 -0.094832405 0.95800006 5911592
-0.10980593 -0.094832405 0.95800006 6367775
-0.13060255 -0.091504954 0.95800006 7285803
-0.12727508 -0.091504954 0.95800006 6305831
-0.12394765 -0.091504954 0.95800006 3878199
-0.12145204 -0.091504954 0.95800006 6106933
-0.11895645 -0.091504954 0.95800006 5647408
-0.11646087 -0.091504954 0.95800006 5973548
-0.13060255 -0.089841254 0.95800006 1056832
-0.12727508 -0.089009374 0.95800006 2760759
-0.12394765 -0.089009374 0.95800006 2695736
-0.12145204 -0.089009374 0.95800006 8006932
-0.11895645 -0.089009374 0.95800006 1056832
-0.11646087 -0.089009374 0.95800006 4859702
-0.12311581 -0.086513802 0.95800006 9513754
-0.12145204 -0.086513802 0.95800006 9777187
-0.11923375 -0.085959218 0.95800006 6959412
-0.11646087 -0.086513802 0.95800006 9979700
-0.11895645 -0.082354471 0.95800006 11687737
-0.11867917 -0.078749739 0.95800006 6298911
-0.12767366 -0.16856262 0.96100003 1056832
-0.1243358 -0.16856262 0.96100003 5389127
-0.12795183 -0.15076062 0.96100008 4075065
-0.12461396 -0.15131694 0.96100008 9981223
-0.12099791 -0.15103878 0.96100003 7094324
-0.12767366 -0.14853534 0.96100003 9980206
-0.12517026 -0.14853534 0.96100003 9980186
-0.12183236 -0.14853534 0.96100003 9396485
-0.13101155 -0.14519747 0.96100003 5518395
-0.12767366 -0.14603195 0.96100003 3287615
-0.12517026 -0.14603195 0.96100003 5520455
-0.13518384 -0.14352857 0.96100003 1056832
-0.13351494 -0.14269409 0.96100003 5451830
-0.13101155 -0.14269409 0.96100003 3287358
-0.12767366 -0.14269409 0.96100003 5519169
-0.1243358 -0.14269409 0.96100003 7889488
-0.12099791 -0.14269409 0.96100003 7754056
-0.11849448 -0.14185961 0.96100003 9854250
-0.11515666 -0.14185961 0.96100003 9788445
-0.11265323 -0.14269409 0.96100003 1056832
-0.1101498 -0.14269409 0.96100003 9985075
-0.13351494 -0.13935621 0.96100003 9716786
-0.13101155 -0.13935621 0.96100003 5452862
-0.12767366 -0.13935621 0.96100003 7820865
-0.1243358 -0.13935621 0.96100003 3290438
-0.12099791 -0.13935621 0.96100003 7556161
-0.11849448 -0.13935621 0.96100003 9854002
-0.11571296 -0.13963437 0.96100008 3945530
-0.11265323 -0.13935621 0.96100003 5521982
-0.1101498 -0.14019069 0.96100003 10118474
-0.13518384 -0.13601834 0.96100003 5453380
-0.13351494 -0.13601834 0.96100003 5452606
-0.13101155 -0.13601834 0.96100003 5452348
-0.12767366 -0.13601834 0.96100003 7756353
-0.1243358 -0.13601834 0.96100003 7820365
-0.12099791 -0.13601834 0.96100003 7490104
-0.11849448 -0.13601834 0.96100003 9852971
-0.11626926 -0.1362965 0.96100008 3945276
-0.11293139 -0.1362965 0.96100008 7031620
-0.13518384 -0.13351496 0.96100003 9851977
-0.13351494 -0.13351496 0.96100003 9653312
-0.13101155 -0.13351496 0.96100003 9585206
-0.12767366 -0.13351496 0.96100003 10054211
-0.1243358 -0.13351496 0.96100003 10052445
-0.12099791 -0.13351496 0.96100003 9590596
-0.11849448 -0.13351496 0.96100003 9852471
-0.11682557 -0.13351496 0.96100003 9787188
-0.13518384 -0.13101155 0.96100003 5388351
-0.13351494 -0.13101155 0.96100003 1056832
-0.13101155 -0.13101155 0.96100003 1056832
-0.12767366 -0.13101155 0.96100003 5453885
-0.1243358 -0.13101155 0.96100003 5721673
-0.12099791 -0.13101155 0.96100003 5456207
-0.11849448 -0.13101155 0.96100003 9854029
-0.11626926 -0.1307334 0.96100008 3879748
-0.11348768 -0.13017708 0.96100003 9459781
-0.13574016 -0.12739551 0.96100008 3944768
-0.13351494 -0.12767366 0.96100003 9784888
-0.13101155 -0.12767367 0.96100003 5321526
-0.12767366 -0.12767367 0.96100003 7686195
-0.1243358 -0.12767366 0.96100003 7753533
-0.12099791 -0.12767366 0.96100003 7689804
-0.11849448 -0.12850812 0.96100003 9928805
-0.11599112 -0.12767366 0.96100003 3225420
-0.11265323 -0.12683921 0.96100003 5129534
-0.13518384 -0.12433578 0.96100003 5454655
-0.13351494 -0.12433578 0.96100003 5322557
-0.13101155 -0.12433578 0.96100003 5253949
-0.12767366 -0.12433577 0.96100003 7555114
-0.1243358 -0.12517026 0.96100003 9787964
-0.12127607 -0.12461394 0.96100008 6900557
-0.11571296 -0.12461394 0.96100008 3944770
-0.11265323 -0.12433578 0.96100003 6898484
-0.1101498 -0.12350129 0.96100003 7880261
-0.13518384 -0.12099791 0.96100003 5389883
-0.13351494 -0.12099791 0.96100003 5257022
-0.13101155 -0.12099791 0.96100003 5188657
-0.12767366 -0.12099791 0.96100003 7420459
-0.12517026 -0.12183238 0.96100003 1056832
-0.12183236 -0.12099791 0.96100003 9141857
-0.11515666 -0.12099791 0.96100003 1056832
-0.11265323 -0.1209979 0.96100003 4470594
-0.10931534 -0.12099791 0.96100003 4473667
-0.13351494 -0.11849451 0.96100003 9455950
-0.13101155 -0.11849451 0.96100003 9321273
-0.12767366 -0.11849451 0.96100003 9517613
-0.11599112 -0.11849451 0.96100003 6120814
-0.11265323 -0.11849451 0.96100003 4006496
-0.10931534 -0.11849451 0.96100003 4274758
-0.13351494 -0.1159911 0.96100003 1056832
-0.13101155 -0.1159911 0.96100003 1056832
-0.1273955 -0.11626925 0.96100008 3811639
-0.12183236 -0.11682555 0.96100003 8349286
-0.11849448 -0.11515664 0.96100003 1056832
-0.11599112 -0.11599109 0.96100003 2173513
-0.11265323 -0.11599109 0.96100003 2107719
-0.10931534 -0.11599109 0.96100003 2501458
-0.10681198 -0.1159911 0.96100003 4073258
-0.13351494 -0.11265323 0.96100003 9258798
-0.13101155 -0.11265323 0.96100003 5122863
-0.12850814 -0.11181877 0.96100003 9189672
-0.12099791 -0.11265323 0.96100003 5393756
-0.11849448 -0.11265323 0.96100003 2303824
-0.11599112 -0.11265323 0.96100003 2764619
-0.11181877 -0.11181877 0.96100003 1056832
-0.10931534 -0.11265323 0.96100003 3229533
-0.10681198 -0.11181877 0.96100003 3086663
-0.13574018 -0.10903721 0.96100008 3417655
-0.13351494 -0.10931536 0.96100003 9393985
-0.13184603 -0.10931536 0.96100003 5056821
-0.11849448 -0.11014982 0.96100003 3428197
-0.11571296 -0.10959351 0.96100008 2700366
-0.11265323 -0.10931536 0.96100003 4210005
-0.10931534 -0.10931536 0.96100003 2832449
-0.10681198 -0.10931536 0.96100003 1969227
-0.13852173 -0.10514303 0.96100003 1056832
-0.13601834 -0.10597749 0.96100003 4796211
-0.13351494 -0.10681194 0.96100003 9197894
-0.13184603 -0.10597749 0.96100003 4991545
-0.11265323 -0.10681194 0.96100003 6643532
-0.10931534 -0.10597749 0.96100003 3358013
-0.10681198 -0.10597749 0.96100003 2895685
-0.13852173 -0.10347407 0.96100003 5970207
-0.13601834 -0.10347407 0.96100003 5060407
-0.10931534 -0.10347407 0.96100003 7558974
-0.10681198 -0.10347407 0.96100003 6636865
-0.13852173 -0.10180517 0.96100003 1056832
-0.13685282 -0.10097069 0.96100003 7214372
-0.10848089 -0.10013621 0.96100003 1056832
-0.10597749 -0.10097069 0.96100003 4011580
-0.13852173 -0.098467246 0.96100003 1056832
-0.13685282 -0.097632788 0.96100003 1056832
-0.10848089 -0.097632788 0.96100003 4009528
-0.10597749 -0.097632788 0.96100003 4076603
-0.10347409 -0.096798331 0.96100003 7624257
-0.13685282 -0.094294921 0.96100003 3873076
-0.11515666 -0.093460463 0.96100003 1056832
-0.11265323 -0.093460463 0.96100003 3417397
-0.10903719 -0.094016775 0.96100008 4661286
-0.10597749 -0.094294921 0.96100003 5315099
-0.10347409 -0.094294921 0.96100003 6823194
-0.13601834 -0.090957053 0.96100003 3743278
-0.13351494 -0.090957046 0.96100003 4071733
-0.11515666 -0.090957046 0.96100003 3744053
-0.11265323 -0.090957053 0.96100003 2432570
-0.10931534 -0.090957046 0.96100003 4266546
-0.10597749 -0.090957053 0.96100003 6166060
-0.13518384 -0.088453636 0.96100003 6499357
-0.13351494 -0.088453636 0.96100003 6891809
-0.13101155 -0.088453636 0.96100003 7480361
-0.11515666 -0.088453636 0.96100003 1056832
-0.11265323 -0.088453636 0.96100003 8795421
-0.10931534 -0.088453636 0.96100003 9189146
-0.10597749 -0.088453636 0.96100003 10175785
-0.13351494 -0.086784728 0.96100003 1056832
-0.13101155 -0.085950248 0.96100003 1056832
-0.12767366 -0.085950248 0.96100003 4728620
-0.12461396 -0.085672095 0.96100008 6499623
-0.12183236 -0.085115768 0.96100003 11030334
-0.11849448 -0.085115768 0.96100003 1056832
-0.11571296 -0.085672095 0.96100008 4008248
-0.11265323 -0.085950248 0.96100003 3417913
-0.10931534 -0.085950248 0.96100003 5712435
-0.10681198 -0.086784728 0.96100003 11288100
-0.13017705 -0.083446853 0.96100003 8269334
-0.1273955 -0.082890533 0.96100008 6171429
-0.1243358 -0.082612373 0.96100003 7483686
-0.12127607 -0.082334213 0.96100008 8078389
-0.11849448 -0.083446853 0.96100003 12474170
-0.11599112 -0.082612373 0.96100003 6304566
-0.11265323 -0.082612373 0.96100003 8206644
-0.1101498 -0.083446853 0.96100003 10961197
-0.1243358 -0.079274505 0.96100003 6758174
-0.12127607 -0.079552665 0.96100008 9118996
-0.11599112 -0.079274498 0.96100003 5186602
-0.11293139 -0.079552665 0.96100008 8855570
-0.12350134 -0.07510215 0.96100003 1056832
-0.12099791 -0.07593663 0.96100003 3812440
-0.11849448 -0.07593663 0.96100003 8943783
-0.10931534 -0.07593663 0.96100003 3490147
-0.105143 -0.07593663 0.96100003 4275796
-0.10347409 -0.07593663 0.96100003 5267816
-0.105143 -0.073433191 0.96100003 12696263
-0.10347409 -0.073433191 0.96100003 11645358
-0.10931534 -0.071764283 0.96100003 14406386
-0.13044797 -0.17560305 0.96300006 9583687
-0.12793936 -0.17560305 0.96300006 9911117
-0.12375837 -0.17560305 0.96300006 10045524
-0.12208592 -0.17560305 0.96300006 10116181
-0.1337928 -0.17225823 0.96300006 9319212
-0.13044797 -0.17309442 0.96300006 9384501
-0.12793936 -0.17309442 0.96300006 1056832
-0.12459455 -0.17309444 0.96300006 3157315
-0.12124973 -0.17309444 0.96300006 6970970
-0.13546519 -0.16891341 0.96300006 9516838
-0.13323534 -0.16947089 0.96300006 6828591
-0.13044797 -0.16974962 0.96300006 9910570
-0.12793936 -0.17058581 0.96300006 9976894
-0.12459455 -0.17058581 0.96300006 9460308
-0.12124973 -0.1697496 0.96300006 6774369
-0.13546519 -0.1664048 0.96300006 1056832
-0.13295661 -0.1664048 0.96300006 3221305
-0.13044797 -0.1664048 0.96300006 1056832
-0.12793936 -0.1664048 0.96300006 5516861
-0.12459455 -0.1664048 0.96300006 7489100
-0.12124973 -0.16556861 0.96300006 1056832
-0.13546519 -0.16305998 0.96300006 5385269
-0.13323534 -0.16278125 0.96300006 4007736
-0.13044797 -0.16305998 0.96300006 10042164
-0.12793936 -0.16305998 0.96300006 5517372
-0.1248733 -0.16278125 0.96300006 6961719
-0.12124973 -0.16222379 0.96300006 5584435
-0.13630141 -0.16055135 0.96300006 9649200
-0.13295661 -0.16055135 0.96300006 9912118
-0.13044797 -0.16055135 0.96300006 9977923
-0.12793936 -0.16055135 0.96300006 10043963
-0.12459455 -0.16055135 0.96300006 10175275
-0.12124973 -0.16055135 0.96300006 10240557
-0.13602267 -0.1583215 0.96300006 3877180
-0.13295661 -0.15804276 0.96300006 5451580
-0.13044797 -0.15804276 0.96300006 10043722
-0.12793936 -0.15804276 0.96300006 1056832
-0.12459455 -0.15804276 0.96300006 5648442
-0.12124973 -0.15804276 0.96300006 3352892
-0.13546519 -0.15469794 0.96300006 5385785
-0.13295661 -0.15469794 0.96300006 5451583
-0.13044797 -0.15469794 0.96300006 5583164
-0.12793936 -0.15469794 0.96300006 5648953
-0.12459455 -0.15469794 0.96300006 8010549
-0.12124973 -0.15469794 0.96300006 3222077
-0.11874109 -0.15553416 0.96300006 9850168
-0.13630141 -0.15135312 0.96300006 3355202
-0.13295661 -0.15135312 0.96300006 7748166
-0.13044797 -0.15135312 0.96300006 10045232
-0.12710313 -0.15218934 0.96300006 10177324
-0.12375837 -0.1505169 0.96300006 1056832
-0.11874109 -0.15135312 0.96300006 9523261
-0.11372387 -0.1505169 0.96300006 1056832
-0.13546519 -0.14800829 0.96300006 1056832
-0.13295661 -0.14800829 0.96300006 5517893
-0.13044797 -0.14800829 0.96300006 10045494
-0.12375837 -0.14800829 0.96300006 5322788
-0.12097099 -0.14772955 0.96300006 3881515
-0.11874109 -0.14800829 0.96300006 9992510
-0.11539632 -0.14717208 0.96300006 10182479
-0.11316641 -0.14772955 0.96300006 6965313
-0.11037904 -0.14717208 0.96300006 1056832
-0.13546519 -0.14549966 0.96300006 10044487
-0.1337928 -0.14549966 0.96300006 9979463
-0.12375837 -0.14549966 0.96300006 1056832
-0.12124973 -0.14549966 0.96300006 5524805
-0.11874109 -0.14549966 0.96300006 9986627
-0.11539632 -0.14549966 0.96300006 9984317
-0.11288768 -0.14549966 0.96300006 5520185
-0.11037904 -0.14549966 0.96300006 10049845
-0.13658015 -0.14271232 0.96300006 3942982
-0.11762616 -0.14326981 0.96300006 3945533
-0.11539632 -0.14382727 0.96300006 9853485
-0.13630141 -0.13964623 0.96300006 3156031
-0.1170687 -0.13881002 0.96300006 1056832
-0.11037904 -0.13881002 0.96300006 10052449
-0.13713764 -0.13630143 0.96300006 5520203
-0.11539632 -0.1354652 0.96300006 1056832
-0.11205149 -0.1354652 0.96300006 1056832
-0.11037904 -0.13630143 0.96300006 9854533
-0.13713764 -0.13295659 0.96300006 9854026
-0.11539632 -0.13295659 0.96300006 5389116
-0.11288768 -0.13295659 0.96300006 5323582
-0.11037904 -0.13212039 0.96300006 9328958
-0.13713764 -0.130448 0.96300006 9655106
-0.11205149 -0.130448 0.96300006 9329735
-0.11037904 -0.130448 0.96300006 9134153
-0.13881002 -0.12710318 0.96300006 9523782
-0.13713764 -0.12877557 0.96300006 9720643
-0.11288768 -0.12877557 0.96300006 1056832
-0.11037904 -0.12793937 0.96300006 8670800
-0.13936751 -0.1243158 0.96300006 1056832
-0.13713764 -0.12459454 0.96300006 5190973
-0.10926412 -0.12487327 0.96300006 3417666
-0.13964625 -0.12124972 0.96300006 4861249
-0.13713764 -0.12124972 0.96300006 9724483
-0.10647678 -0.12097099 0.96300006 3945539
-0.13964625 -0.1179049 0.96300006 4863298
-0.13630141 -0.1179049 0.96300006 7426652
-0.1059193 -0.11818364 0.96300006 3223613
-0.10368943 -0.11706869 0.96300006 3689788
-0.13881002 -0.1153963 0.96300006 9059365
-0.13630141 -0.1153963 0.96300006 5191995
-0.10536182 -0.1153963 0.96300006 3550255
-0.10368943 -0.1153963 0.96300006 4017978
-0.13964625 -0.11288768 0.96300006 1056832
-0.13630141 -0.11288768 0.96300006 3025215
-0.11316641 -0.11316641 0.96300006 5391717
-0.10954285 -0.11288768 0.96300006 5064816
-0.1059193 -0.11316641 0.96300006 2040380
-0.13936751 -0.1098216 0.96300006 4922152
-0.13713764 -0.11037906 0.96300006 8598315
-0.10536182 -0.10954286 0.96300006 660796
-0.13992499 -0.10647678 0.96300006 4462113
-0.10536182 -0.10619804 0.96300006 1251128
-0.14048247 -0.10285322 0.96300006 3480365
-0.10536182 -0.10368942 0.96300006 5716284
-0.10313195 -0.10257449 0.96300006 2434876
-0.13964625 -0.1003446 0.96300006 1056832
-0.10285321 -0.1003446 0.96300006 7028041
-0.13992499 -0.097557247 0.96300006 1056832
-0.10257447 -0.098114714 0.96300006 3091531
-0.1003446 -0.096999787 0.96300006 1056832
-0.13964625 -0.094491161 0.96300006 3348781
-0.10201699 -0.094491169 0.96300006 4142130
-0.1003446 -0.095327355 0.96300006 7294250
-0.13881002 -0.09114635 0.96300006 3350059
-0.10285321 -0.09114635 0.96300006 6233123
-0.13881002 -0.088637725 0.96300006 5709341
-0.13713764 -0.088637725 0.96300006 6104346
-0.10368943 -0.088637725 0.96300006 10441561
-0.13602267 -0.086407863 0.96300006 1056832
-0.1337928 -0.085292906 0.96300006 1056832
-0.1059193 -0.08585038 0.96300006 4467258
-0.10368943 -0.086965337 0.96300006 12211509
-0.13295661 -0.082784303 0.96300006 4204330
-0.13044797 -0.081948087 0.96300006 8005399
-0.12877558 -0.081948087 0.96300006 1056832
-0.10926412 -0.082505569 0.96300006 7484467
-0.10703427 -0.083620518 0.96300006 11419688
-0.13212042 -0.080275699 0.96300006 7412492
-0.13044797 -0.079439484 0.96300006 7346694
-0.12793936 -0.079439484 0.96300006 1056832
-0.10954285 -0.080275699 0.96300006 9775134
-0.12793936 -0.076930881 0.96300006 6237525
-0.12459455 -0.076930881 0.96300006 6307165
-0.11407816 -0.17782775 0.96600002 11238982
-0.13588721 -0.1753113 0.96600002 4927810
-0.1333708 -0.1753113 0.96600002 5123651
-0.1258215 -0.17615011 0.96600002 10040402
-0.12078866 -0.17615011 0.96600002 10117463
-0.119111 -0.1753113 0.96600002 9529699
-0.11491698 -0.17447247 0.96600002 5390411
-0.13672602 -0.17195605 0.96600002 3089461
-0.132532 -0.17195605 0.96600002 5188150
-0.1182722 -0.17195605 0.96600002 4934492
-0.11491698 -0.17195605 0.96600002 5390419
-0.11240055 -0.17195605 0.96600002 5453390
-0.13756485 -0.16943963 0.96600002 9385254
-0.1182722 -0.16943963 0.96600002 8614010
-0.11491698 -0.16943963 0.96600002 10054494
-0.13756485 -0.1669232 0.96600002 5254709
-0.12162745 -0.16776198 0.96600002 4672083
-0.119111 -0.1669232 0.96600002 8156790
-0.11407816 -0.1669232 0.96600002 5652810
-0.13924246 -0.16356796 0.96600002 9517604
-0.13756485 -0.16356796 0.96600002 1056832
-0.132532 -0.16440675 0.96600002 10172461
-0.12414391 -0.16440675 0.96600002 9982779
-0.12162745 -0.16440675 0.96600002 10120521
-0.1182722 -0.16272916 0.96600002 5650234
-0.11575581 -0.16272916 0.96600002 10241344
-0.11240055 -0.16272916 0.96600002 1056832
-0.13980168 -0.16049233 0.96600002 6696749
-0.1182722 -0.16021273 0.96600002 5713976
-0.11491698 -0.16021273 0.96600002 8009014
-0.11240055 -0.15937392 0.96600002 10438444
-0.13924246 -0.15685749 0.96600002 9784624
-0.13756485 -0.15685749 0.96600002 5320246
-0.1179926 -0.15713708 0.96600002 7288888
-0.11491699 -0.15685749 0.96600002 7749165
-0.11240055 -0.15685749 0.96600002 10111275
-0.13924246 -0.15434104 0.96600002 10182974
-0.13756485 -0.15434104 0.96600002 10050608
-0.1182722 -0.15434104 0.96600002 9129529
-0.11491698 -0.15434104 0.96600002 8802602
-0.11240055 -0.15434104 0.96600002 9523249
-0.1107229 -0.15434104 0.96600002 9719356
-0.13924246 -0.15182462 0.96600002 5654086
-0.1174334 -0.15182462 0.96600002 1056832
-0.1151966 -0.15210423 0.96600002 6572864
-0.11240055 -0.15182462 0.96600002 9921850
-0.1101637 -0.15154502 0.96600002 4210499
-0.10736771 -0.15098581 0.96600002 10583380
-0.13924246 -0.14846936 0.96600002 10248283
-0.13756485 -0.14846936 0.96600002 5587530
-0.1174334 -0.14846936 0.96600002 5456732
-0.11575581 -0.14930816 0.96600002 9921888
-0.11240055 -0.14930816 0.96600002 10050885
-0.1096045 -0.14874896 0.96600002 4076864
-0.10736771 -0.14763056 0.96600002 1056832
-0.13980168 -0.14483453 0.96600002 7097676
-0.13756485 -0.14595293 0.96600002 10051400
-0.1174334 -0.14595293 0.96600002 9985353
-0.1090453 -0.14511412 0.96600002 5585977
-0.10736771 -0.14511412 0.96600002 5585720
-0.13924246 -0.14259769 0.96600002 1056832
-0.1090453 -0.14259769 0.96600002 1056832
-0.10736771 -0.14259769 0.96600002 10114581
-0.13924246 -0.14008129 0.96600002 9781829
-0.1090453 -0.14008129 0.96600002 5586236
-0.10736771 -0.14008129 0.96600002 1056832
-0.13924246 -0.13672604 0.96600002 5519686
-0.1090453 -0.13672604 0.96600002 5455166
-0.10736771 -0.13672604 0.96600002 5454644
-0.14008129 -0.1333708 0.96600002 3289157
-0.1096045 -0.13365041 0.96600002 6702394
-0.14008129 -0.13001555 0.96600002 5257544
-0.1090453 -0.13001555 0.96600002 1056832
-0.14259771 -0.12749915 0.96600002 9126218
-0.14092012 -0.12749915 0.96600002 9327178
-0.1090453 -0.12749915 0.96600002 1056832
-0.10736771 -0.12749915 0.96600002 7939917
-0.14427531 -0.12414386 0.96600002 1056832
-0.14259771 -0.12498268 0.96600002 4795455
-0.14092012 -0.1258215 0.96600002 1056832
-0.10680848 -0.12470307 0.96600002 3288384
-0.10401246 -0.12414386 0.96600002 5266008
-0.14427531 -0.12162745 0.96600002 1056832
-0.14259771 -0.12162745 0.96600002 4068923
-0.10569005 -0.12246627 0.96600002 1056832
-0.10401246 -0.12162745 0.96600002 2570832
-0.14427531 -0.11827221 0.96600002 1056832
-0.14259771 -0.11827221 0.96600002 1056832
-0.10289402 -0.11855181 0.96600002 2306879
-0.14427531 -0.11491698 0.96600002 1056832
-0.14259771 -0.11491698 0.96600002 3215398
-0.14092012 -0.1157558 0.96600002 1056832
-0.10289402 -0.11463737 0.96600002 2175290
-0.14427531 -0.11240055 0.96600002 6226190
-0.14259771 -0.11240055 0.96600002 5177631
-0.10317363 -0.11240055 0.96600002 4473672
-0.14427531 -0.10988411 0.96600002 3413562
-0.14259771 -0.10988411 0.96600002 1056832
-0.14092012 -0.10904532 0.96600002 1056832
-0.10317363 -0.10988412 0.96600002 1840170
-0.14427531 -0.10652888 0.96600002 1056832
-0.14259771 -0.10652888 0.96600002 3348273
-0.10317363 -0.10652888 0.96600002 2629676
-0.14259771 -0.10317364 0.96600002 3414835
-0.1023348 -0.10401244 0.96600002 4668472
-0.1006572 -0.10317364 0.96600002 3419964
-0.098979615 -0.10233484 0.96600002 1056832
-0.14259771 -0.1006572 0.96600002 5642014
-0.1006572 -0.1006572 0.96600002 7157047
-0.14259771 -0.098140761 0.96600002 3283760
-0.1006572 -0.098979555 0.96600002 7222328
-0.098979615 -0.098140761 0.96600002 1056832
-0.14259771 -0.094785526 0.96600002 1056832
-0.1006572 -0.093946725 0.96600002 1056832
-0.098979615 -0.094785526 0.96600002 4208948
-0.14259771 -0.092269085 0.96600002 4857385
-0.14092012 -0.091430292 0.96600002 3153449
-0.1006572 -0.091430292 0.96600002 7877413
-0.14008129 -0.088075057 0.96600002 5645342
-0.1023348 -0.088075057 0.96600002 5717576
-0.13924246 -0.085558616 0.96600002 6105882
-0.13756485 -0.085558616 0.96600002 6434323
-0.10401246 -0.085558616 0.96600002 11949073
-0.13644642 -0.083321802 0.96600002 1056832
-0.10624927 -0.082762592 0.96600002 7877932
-0.10401246 -0.083042189 0.96600002 11355169
-0.13588721 -0.080525786 0.96600002 1056832
-0.13365041 -0.079407357 0.96600002 3088174
-0.11240055 -0.078848138 0.96600002 1056832
-0.1098841 -0.078848138 0.96600002 4659750
-0.1068085 -0.079966575 0.96600002 6629416
-0.1333708 -0.077170543 0.96600002 3608892
-0.13085434 -0.077170543 0.96600002 6101827
-0.10736771 -0.077170543 0.96600002 7428468
-0.14472337 -0.1750143 0.96900004 8806232
-0.14219916 -0.1750143 0.96900004 8996429
-0.13967489 -0.1750143 0.96900004 9058871
-0.13799207 -0.17585573 0.96900004 8666931
-0.1177981 -0.17585573 0.96900004 5652048
-0.11527386 -0.17669715 0.96900004 10439720
-0.11190818 -0.17585573 0.96900004 8074299
-0.10938396 -0.1750143 0.96900004 1056832
-0.14191869 -0.17277054 0.96900004 3548992
-0.13967489 -0.17249008 0.96900004 1056832
-0.11106675 -0.17249008 0.96900004 5713998
-0.10938396 -0.17249008 0.96900004 11433050
-0.14135775 -0.16912442 0.96900004 4991536
-0.13967489 -0.16912442 0.96900004 5122353
-0.1177981 -0.16828299 0.96900004 1056832
-0.1161153 -0.16828299 0.96900004 10318441
-0.11190819 -0.16912442 0.96900004 8009026
-0.10938396 -0.16912442 0.96900004 11693630
-0.14472337 -0.16660018 0.96900004 9130321
-0.14219916 -0.16660018 0.96900004 9253951
-0.13967489 -0.16660018 0.96900004 9453106
-0.1177981 -0.16660018 0.96900004 9532287
-0.1161153 -0.16660018 0.96900004 10252649
-0.11190818 -0.16660018 0.96900004 10436689
-0.10938396 -0.16660018 0.96900004 11231558
-0.14219916 -0.16407593 0.96900004 3089471
-0.11863951 -0.16491733 0.96900004 1056832
-0.11499339 -0.1643564 0.96900004 1056832
-0.11162771 -0.1643564 0.96900004 4139842
-0.10938396 -0.16407593 0.96900004 10764095
-0.14247963 -0.16042981 0.96900004 3811139
-0.11162771 -0.16099074 0.96900004 4205628
-0.10938396 -0.16071028 0.96900004 10699827
-0.10770115 -0.16071028 0.96900004 1056832
-0.14219916 -0.15734461 0.96900004 3155517
-0.11106675 -0.15734461 0.96900004 1056832
-0.10938396 -0.15734461 0.96900004 5977403
-0.10685971 -0.15734461 0.96900004 5846587
-0.14219916 -0.15397896 0.96900004 5520711
-0.10938396 -0.15397896 0.96900004 5518915
-0.10685971 -0.15397896 0.96900004 5649989
-0.10433548 -0.15397896 0.96900004 10640436
-0.14472337 -0.1514547 0.96900004 9716569
-0.14219916 -0.1514547 0.96900004 10116959
-0.10601828 -0.1514547 0.96900004 10714442
-0.10433548 -0.1514547 0.96900004 10714432
-0.14472337 -0.14808904 0.96900004 9651550
-0.14219916 -0.14893045 0.96900004 1056832
-0.10657924 -0.14921091 0.96900004 1056832
-0.10433548 -0.14893045 0.96900004 10514000
-0.14528432 -0.14528434 0.96900004 9459308
-0.14247963 -0.14584526 0.96900004 6965074
-0.10601828 -0.14556479 0.96900004 5651009
-0.10433548 -0.14556479 0.96900004 10312016
-0.14472337 -0.14219913 0.96900004 5125709
-0.14219916 -0.14219913 0.96900004 5254477
-0.10601828 -0.14219913 0.96900004 5585461
-0.10377453 -0.14191867 0.96900004 7160898
-0.14472337 -0.13967489 0.96900004 9260899
-0.14219916 -0.13967489 0.96900004 9388607
-0.10601828 -0.13967489 0.96900004 9984322
-0.10349405 -0.13967489 0.96900004 10248524
-0.14472337 -0.13715065 0.96900004 9393239
-0.14219916 -0.13715065 0.96900004 3158084
-0.10601828 -0.13715065 0.96900004 1056832
-0.10349405 -0.13715065 0.96900004 5520707
-0.14472337 -0.13378499 0.96900004 5192275
-0.14304055 -0.13378499 0.96900004 5390156
-0.10685971 -0.13378499 0.96900004 7359539
-0.10349405 -0.13378499 0.96900004 7753783
-0.14472337 -0.13041934 0.96900004 1056832
-0.14304055 -0.13041934 0.96900004 5191757
-0.10685971 -0.13041934 0.96900004 4996929
-0.10377453 -0.13069981 0.96900004 6833207
-0.14528432 -0.12733416 0.96900004 6376284
-0.10601828 -0.12705368 0.96900004 4401220
-0.10349405 -0.12705368 0.96900004 4600638
-0.14640623 -0.1245294 0.96900004 7044478
-0.10265261 -0.1245294 0.96900004 3028780
-0.1009698 -0.1245294 0.96900004 3932417
-0.1514547 -0.1228466 0.96900004 14802141
-0.14893046 -0.1228466 0.96900004 6059404
-0.14640623 -0.1228466 0.96900004 1056832
-0.10265261 -0.12200517 0.96900004 1056832
-0.1009698 -0.12200517 0.96900004 2428960
-0.1009698 -0.11863951 0.96900004 4196153
-0.14893046 -0.11527386 0.96900004 10661033
-0.14640623 -0.11443243 0.96900004 7041128
-0.1009698 -0.11527386 0.96900004 3225141
-0.14864999 -0.11218868 0.96900004 5333341
-0.14640623 -0.1119082 0.96900004 7363665
-0.1009698 -0.1119082 0.96900004 2700857
-0.1001284 -0.10938397 0.96900004 1056832
-0.14640623 -0.10601831 0.96900004 5256765
-0.1001284 -0.10685971 0.96900004 3157309
-0.097604133 -0.10685971 0.96900004 4009791
-0.14472337 -0.10349406 0.96900004 1056832
-0.099287003 -0.10433546 0.96900004 6896186
-0.097604133 -0.10349406 0.96900004 3615549
-0.095079884 -0.10265265 0.96900004 1056832
-0.14472337 -0.10012837 0.96900004 5514030
-0.099287003 -0.1009698 0.96900004 7157043
-0.097604133 -0.10012837 0.96900004 2959927
-0.095079884 -0.099286951 0.96900004 1056832
-0.14472337 -0.097604148 0.96900004 5448502
-0.097604133 -0.097604148 0.96900004 1056832
-0.095921323 -0.097604148 0.96900004 5518626
-0.14472337 -0.095079891 0.96900004 5317949
-0.097604133 -0.095079891 0.96900004 4012339
-0.14472337 -0.091714233 0.96900004 4925758
-0.14304055 -0.090872832 0.96900004 1056832
-0.099287003 -0.091714233 0.96900004 4332334
-0.14219916 -0.088348575 0.96900004 2957623
-0.10040887 -0.088629052 0.96900004 6767172
-0.14135775 -0.084982924 0.96900004 1056832
-0.13967489 -0.084141523 0.96900004 1056832
-0.10265261 -0.084982924 0.96900004 1056832
-0.1009698 -0.085824326 0.96900004 11488010
-0.13967489 -0.082458667 0.96900004 6171674
-0.13799207 -0.082458667 0.96900004 6499083
-0.10265261 -0.082458667 0.96900004 1056832
-0.13967489 -0.080775857 0.96900004 6104860
-0.13743113 -0.079653963 0.96900004 1056832
-0.10601828 -0.079093009 0.96900004 1056832
-0.10349405 -0.079934433 0.96900004 7746091
-0.13715065 -0.077410206 0.96900004 3677489
-0.1088786 -0.17724422 0.97200006 10630968
-0.10634651 -0.17724422 0.97200006 10567758
-0.10487384 -0.17760891 0.97400004 10310246
-0.1510796 -0.17555614 0.97200006 12105400
-0.14828935 -0.17478971 0.9740001 7105923
-0.1468595 -0.17555614 0.97200006 8617086
-0.10803459 -0.17555614 0.97200006 1056832
-0.10634651 -0.17555614 0.97200006 10038613
-0.10402807 -0.17507163 0.97400004 1056832
-0.15376967 -0.17320123 0.97300005 7040383
-0.15123501 -0.17320123 0.97300005 6779009
-0.14716168 -0.17253435 0.97400004 8214398
-0.14517142 -0.17302409 0.97200006 4663629
-0.1434834 -0.17218006 0.97200006 1056832
-0.10803459 -0.17302409 0.97200006 1056832
-0.10634651 -0.17302409 0.97200006 11363417
-0.10487384 -0.17253435 0.97400004 1056832
-0.15477347 -0.17084286 0.97400004 13947083
-0.15139046 -0.17084286 0.97400004 12832182
-0.14716168 -0.1699971 0.97400004 1056832
-0.14517142 -0.16964802 0.97200006 8867681
-0.1434834 -0.16964802 0.97200006 4926529
-0.10803459 -0.16964802 0.97200006 6310208
-0.10645592 -0.16982342 0.97300005 11428170
-0.10487384 -0.1699971 0.97400004 6243148
-0.1539277 -0.16745983 0.97400004 14736600
-0.15139046 -0.16745983 0.97400004 13949911
-0.14772551 -0.16689599 0.9740001 4475502
-0.14517142 -0.16542791 0.97200006 9193821
-0.10803459 -0.16627194 0.97200006 1056832
-0.10634651 -0.16627194 0.97200006 10965316
-0.10402807 -0.16661407 0.97400004 6046789
-0.1014908 -0.16576831 0.97400004 10834243
-0.14772551 -0.16294913 0.9740001 4541806
-0.14517142 -0.16289586 0.97200006 9191016
-0.10803459 -0.16373989 0.97200006 10699077
-0.10634651 -0.16289586 0.97200006 5844802
-0.10392126 -0.16306433 0.97300005 5912130
-0.1014908 -0.16323105 0.97400004 10700860
-0.14800742 -0.15984802 0.97400004 8486810
-0.14517142 -0.16036382 0.97200006 9321830
-0.10634651 -0.16036382 0.97200006 1056832
-0.10381446 -0.16036382 0.97200006 10701094
-0.10064506 -0.15984802 0.97400004 5846073
-0.14800742 -0.15731077 0.97400004 10590891
-0.14517142 -0.15783176 0.97200006 9453661
-0.10381446 -0.15783176 0.97200006 3418943
-0.10078804 -0.15765809 0.97266674 7487031
-0.098107763 -0.15731077 0.97400004 10832704
-0.14800742 -0.15477347 0.97400004 6515845
-0.14517142 -0.15445568 0.97200006 9584725
-0.10297042 -0.15445568 0.97200006 5977917
-0.10054086 -0.15461458 0.97300005 5912384
-0.15110855 -0.15110852 0.9740001 1056832
-0.14800742 -0.15139043 0.97400004 5923447
-0.14517142 -0.15023555 0.97200006 9651294
-0.10297042 -0.15107958 0.97200006 5915971
-0.10054086 -0.15123501 0.97300005 5782343
-0.098107763 -0.15054467 0.97400004 10312795
-0.15731074 -0.14716165 0.97400004 14802653
-0.15054472 -0.14800742 0.97400004 15002582
-0.14800742 -0.14800742 0.97400004 5924214
-0.10297042 -0.14854753 0.97200006 1056832
-0.10029368 -0.14818746 0.97333336 7428181
-0.098107763 -0.14800742 0.97400004 9988459
-0.15731074 -0.14547016 0.97400004 1056832
-0.15477347 -0.14547016 0.97400004 7962510
-0.15139046 -0.14547016 0.97400004 1056832
-0.14885317 -0.14547016 0.97400004 12110277
-0.10297042 -0.14601545 0.97200006 5784912
-0.10078804 -0.1458337 0.97266674 1056832
-0.15139046 -0.14208713 0.97400004 8029578
-0.14800742 -0.14293288 0.97400004 3819874
-0.10297042 -0.14348339 0.97200006 10312266
-0.10054085 -0.14278612 0.97300005 5786698
-0.15139046 -0.13954985 0.97400004 7962510
-0.14800742 -0.13954985 0.97400004 8621468
-0.10054086 -0.13940658 0.97300005 8085582
-0.098107763 -0.1403956 0.97400004 10577244
-0.15139046 -0.13616684 0.97400004 11382708
-0.14818744 -0.13635615 0.97333336 11120826
-0.1468595 -0.13504322 0.97200006 1056832
-0.10054085 -0.13602702 0.97300005 8017740
-0.1510796 -0.13335516 0.97200006 7896462
-0.1485475 -0.13335516 0.97200006 12175824
-0.1468595 -0.13335516 0.97200006 9275547
-0.10043839 -0.13335516 0.97200006 10178864
-0.098107763 -0.13362956 0.97400004 10242878
-0.15361163 -0.13082311 0.97200006 14473432
-0.1510796 -0.13082311 0.97200006 4476519
-0.1485475 -0.13082311 0.97200006 12110797
-0.1468595 -0.13082311 0.97200006 1056832
-0.10297042 -0.12997909 0.97200006 1056832
-0.1004384 -0.13082311 0.97200006 5388604
-0.098107763 -0.13109228 0.97400004 9983809
-0.15361163 -0.12744704 0.97200006 14473431
-0.1510796 -0.12744704 0.97200006 11449009
-0.1485475 -0.12744704 0.97200006 11848397
-0.1468595 -0.12660301 0.97200006 1056832
-0.1004384 -0.12744704 0.97200006 6572327
-0.098107763 -0.12770927 0.97400004 8741222
-0.15361163 -0.12491494 0.97200006 14473176
-0.1510796 -0.12491494 0.97200006 15067096
-0.1485475 -0.12491494 0.97200006 11127250
-0.099594384 -0.12407093 0.97200006 2962236
-0.097906306 -0.12407093 0.97200006 5463408
-0.15023559 -0.12153886 0.97200006 1056832
-0.1485475 -0.12153886 0.97200006 1056832
-0.1468595 -0.12153886 0.97200006 6973818
-0.099594384 -0.12153886 0.97200006 5783364
-0.098007038 -0.12081816 0.97300005 6253156
-0.15023559 -0.11900682 0.97200006 15130581
-0.1485475 -0.11900682 0.97200006 1056832
-0.1468595 -0.11900682 0.97200006 1056832
-0.099594384 -0.11900682 0.97200006 1056832
-0.097161293 -0.11828436 0.97300005 7173730
-0.1468595 -0.11647478 0.97200006 6581108
-0.099594384 -0.11563075 0.97200006 3159618
-0.097409628 -0.11542813 0.97266674 4409164
-0.15023559 -0.11141063 0.97200006 12557920
-0.099594384 -0.11225466 0.97200006 2697781
-0.097161286 -0.11237015 0.97300005 4467249
-0.15023559 -0.10887858 0.97200006 6113327
-0.1485475 -0.10887858 0.97200006 1056832
-0.1468595 -0.10887858 0.97200006 3610679
-0.096780971 -0.10915993 0.97200006 4997175
-0.094724722 -0.10910261 0.97400004 8604209
-0.15023559 -0.10634654 0.97200006 4737865
-0.1485475 -0.10634654 0.97200006 4997184
-0.096218295 -0.10634654 0.97200006 7156027
-0.094724722 -0.10656536 0.97400004 7028537
-0.15054472 -0.10402808 0.97400004 3290690
-0.14885317 -0.10402808 0.97400004 3289917
-0.1468595 -0.10381448 0.97200006 1056832
-0.096218295 -0.10465848 0.97200006 1056832
-0.093781725 -0.10476616 0.97300005 3092285
-0.091998197 -0.10297047 0.97200006 4210477
-0.15054472 -0.10064504 0.97400004 3421760
-0.14800742 -0.10064504 0.97400004 4405306
-0.096218295 -0.1012824 0.97200006 2767655
-0.093781725 -0.10138661 0.97300005 4412196
-0.091716871 -0.10015702 0.97200006 3160123
-0.15054472 -0.098107778 0.97400004 5459020
-0.14772551 -0.09754394 0.9740001 3880003
-0.096218295 -0.096218266 0.97200006 1056832
-0.093781725 -0.09716215 0.97300005 2109501
-0.091341749 -0.09726201 0.97400004 4276040
-0.15054472 -0.093033224 0.97400004 1056832
-0.14800742 -0.093878992 0.97400004 2107715
-0.096218295 -0.094530247 0.97200006 1056832
-0.094724722 -0.094724759 0.97400004 1056832
-0.14716168 -0.091341734 0.97400004 5257793
-0.097111799 -0.092045069 0.97250003 4398900
-0.14716168 -0.089650199 0.97400004 1056832
-0.14517142 -0.088622108 0.97200006 3089725
-0.1434834 -0.087778099 0.97200006 1056832
-0.099594384 -0.087778099 0.97200006 1056832
-0.097409628 -0.088964805 0.97266674 9849403
-0.14716168 -0.086267173 0.97400004 5524561
-0.14517142 -0.085246027 0.97200006 3221827
-0.1434834 -0.085246027 0.97200006 3221050
-0.10015707 -0.084964693 0.97200006 4336436
-0.098107763 -0.085421428 0.97400004 5976119
-0.14517142 -0.081869945 0.97200006 3354694
-0.1426394 -0.081869945 0.97200006 3417913
-0.10043839 -0.081869945 0.97200006 5976113
-0.09747678 -0.081700921 0.97333336 7548724
-0.14547013 -0.079501122 0.97400004 5654857
-0.1426394 -0.07933788 0.97200006 5651005
-0.1401073 -0.07933788 0.97200006 5906973
-0.10043839 -0.07933788 0.97200006 9055242
-0.097906306 -0.07933788 0.97200006 9188134
-0.14517142 -0.077649869 0.97200006 5590603
-0.1426394 -0.077649869 0.97200006 1056832
-0.1401073 -0.077649869 0.97200006 5712423
-0.10043839 -0.077649869 0.97200006 1056832
-0.10095505 -0.17561086 0.97700006 8142408
-0.14931163 -0.17221741 0.97700006 10257824
-0.10350011 -0.17221741 0.97700006 6243403
-0.1018034 -0.17221741 0.97700006 6112588
-0.15440181 -0.16967233 0.97700006 1056832
-0.15185675 -0.16967233 0.97700006 7437702
-0.14931163 -0.16967233 0.97700006 11114420
-0.10350011 -0.16967233 0.97700006 1056832
-0.1018034 -0.16967233 0.97700006 11102034
-0.15185675 -0.16627888 0.97700006 1056832
-0.14931163 -0.16627888 0.97700006 11708875
-0.10095505 -0.16712725 0.97700006 5979715
-0.098409943 -0.16627888 0.97700006 10963271
-0.15440181 -0.16458218 0.97700006 14867932
-0.15185675 -0.16373381 0.97700006 7701133
-0.14931163 -0.16458218 0.97700006 1056832
-0.1001067 -0.16373381 0.97700006 1056832
-0.15185675 -0.16034037 0.97700006 11187128
-0.1001067 -0.16118874 0.97700006 10635062
-0.098409943 -0.159492 0.97700006 10897725
-0.15157397 -0.15722972 0.97700012 10134439
-0.098409943 -0.15609854 0.97700006 10767943
-0.1510084 -0.15440185 0.97700006 1056832
-0.098409943 -0.15440185 0.97700006 10702414
-0.098409943 -0.1527051 0.97700006 10638420
-0.15609856 -0.14761493 0.97700006 1056832
-0.15440181 -0.14761493 0.97700006 1056832
-0.1527051 -0.14846329 0.97700006 1056832
-0.15185675 -0.14422147 0.97700006 7963025
-0.098409943 -0.14506984 0.97700006 9993826
-0.098409943 -0.14252478 0.97700006 10715229
-0.098409943 -0.13913132 0.97700006 10442320
-0.098409943 -0.13658623 0.97700006 10440515
-0.096713245 -0.13064769 0.97700006 1056832
-0.096713245 -0.12725426 0.97700006 1056832
-0.096713245 -0.12470916 0.97700006 3292250
-0.096713245 -0.12131572 0.97700006 3817045
-0.096713245 -0.11707392 0.97700006 1056832
-0.094168134 -0.11792227 0.97700006 5659482
-0.094168134 -0.11537718 0.97700006 4344911
-0.094168134 -0.1128321 0.97700006 4407876
-0.093319781 -0.10943867 0.97700006 1056832
-0.093319781 -0.10689359 0.97700006 6905146
-0.1510084 -0.096713215 0.97700006 1056832
-0.14931163 -0.096713215 0.97700006 1056832
-0.089926325 -0.09756159 0.97700006 5263429
-0.094168134 -0.094168141 0.97700006 5389120
-0.09162309 -0.095016517 0.97700006 10057537
-0.089926325 -0.095016517 0.97700006 10386006
-0.1510084 -0.091623075 0.97700006 5655626
-0.14931163 -0.091623075 0.97700006 1056832
-0.095016487 -0.091623075 0.97700006 7935793
-0.1510084 -0.089077979 0.97700006 5459280
-0.14874607 -0.0887952 0.97700012 1056832
-0.096713245 -0.088229626 0.97700006 1056832
-0.095016487 -0.089926325 0.97700006 9386780
-0.1510084 -0.08568453 0.97700006 5591124
-0.14874607 -0.085401759 0.97700012 2502473
-0.096713245 -0.08568453 0.97700006 5975865
-0.1510084 -0.082291096 0.97700006 5656653
-0.14846329 -0.082291096 0.97700006 1056832
-0.096713245 -0.083139442 0.97700006 10900294
-0.14818051 -0.078614861 0.97700012 2633542
-0.098712124 -0.17529914 0.98000002 10762016
-0.1004141 -0.17274623 0.98000002 5976899
-0.098712124 -0.17274623 0.98000002 10830145
-0.1004141 -0.16934237 0.98000002 5977927
-0.097861171 -0.16934237 0.98000002 8603469
-0.094740942 -0.16905873 0.98000002 7951715
-0.097577512 -0.16565487 0.98000002 7617854
-0.094457284 -0.16593851 0.98000002 8935498
-0.091904432 -0.1659385 0.98000002 13017214
-0.098712124 -0.1633856 0.98000002 10765375
-0.097861171 -0.1608327 0.98000002 5911613
-0.153174 -0.15657787 0.98000002 1056832
-0.1537413 -0.15374133 0.98000002 5595253
-0.09701021 -0.14977014 0.98000002 9526628
-0.09701021 -0.13955855 0.98000002 1056832
-0.09701021 -0.13700563 0.98000002 5716030
-0.09701021 -0.13360178 0.98000002 1056832
-0.095308237 -0.13275082 0.98000002 1056832
-0.09701021 -0.12934697 0.98000002 10117471
-0.095308237 -0.13019791 0.98000002 5392961
-0.095308237 -0.127645 0.98000002 1056832
-0.094457284 -0.12509209 0.98000002 1056832
-0.094457284 -0.12168823 0.98000002 3817557
-0.091904432 -0.11743341 0.98000002 9331307
-0.091904432 -0.11573146 0.98000002 9465444
-0.153174 -0.09701018 0.98000002 5327951
-0.153174 -0.095308281 0.98000002 5262414
-0.15147209 -0.095308281 0.98000002 5328205
-0.093606338 -0.093606323 0.98000002 1056832
-0.091053441 -0.093606323 0.98000002 5193783
-0.088500544 -0.094457299 0.98000002 8025952
-0.093606338 -0.091053441 0.98000002 4665148
-0.091053449 -0.091053441 0.98000002 3091522
-0.094457284 -0.088500544 0.98000002 5912373
-0.091904432 -0.088500544 0.98000002 9518165
-0.095308237 -0.08594764 0.98000002 11096384
-0.091904432 -0.086798593 0.98000002 1056832
-0.095308237 -0.083394729 0.98000002 10966875
-0.15147209 -0.079990864 0.98000002 5656655
-0.14977011 -0.079990864 0.98000002 5721947
-0.099014305 -0.17754288 0.98300004 10769460
-0.09730719 -0.17412861 0.98300004 1056832
-0.09730719 -0.17242149 0.98300004 1056832
-0.09730719 -0.1630322 0.98300004 5977401
-0.095600002 -0.1630322 0.98300004 1056832
-0.092185773 -0.16388576 0.98300004 12754038
-0.095600002 -0.16047147 0.98300004 1056832
-0.1570572 -0.15705718 0.98300004 1056832
-0.15535003 -0.15705718 0.98300004 14933727
-0.09730719 -0.15791076 0.98300004 5978171
-0.1570572 -0.15364291 0.98300004 14737117
-0.09730719 -0.15449649 0.98300004 1056832
-0.1570572 -0.15108219 0.98300004 14802654
-0.15535003 -0.15108219 0.98300004 1056832
-0.09730719 -0.15193574 0.98300004 1056832
-0.095600002 -0.15193574 0.98300004 10376019
-0.09730719 -0.14852147 0.98300004 1056832
-0.09730719 -0.14596075 0.98300004 4934488
-0.095600002 -0.14596075 0.98300004 1056832
-0.09730719 -0.14254647 0.98300004 5918544
-0.095600002 -0.14254647 0.98300004 5787219
-0.094746441 -0.13913219 0.98300004 3350847
-0.094746441 -0.1365715 0.98300004 5584704
-0.094461933 -0.13429528 0.98300004 4075071
-0.092185773 -0.13486433 0.98300004 1056832
-0.093892887 -0.087064303 0.98300004 11165512
-0.090478592 -0.088771462 0.98300004 8405838
-0.093892887 -0.085357182 0.98300004 1056832
-0.09408392 -0.1633639 0.98500007 5978440
-0.092373326 -0.16250859 0.98500007 1056832
-0.094939217 -0.15994267 0.98500007 5911094
-0.095794506 -0.15737674 0.98500007 1056832
-0.15737675 -0.15566614 0.98500007 14802653
-0.1556661 -0.15566614 0.98500007 14802655
-0.095794506 -0.15481082 0.98500007 5846078
-0.094654113 -0.15110448 0.98500007 4205384
-0.094939217 -0.14796834 0.98500007 1056832
-0.09408392 -0.14540242 0.98500007 1056832
-0.090662673 -0.14540242 0.98500007 14274986
-0.09408392 -0.1428365 0.98500007 5720918
-0.090662673 -0.14198118 0.98500007 14009508
-0.088952087 -0.14198118 0.98500007 14475482
-0.091518 -0.13941526 0.98500007 6508610
-0.092373326 -0.13684936 0.98500007 12023881
-0.094370469 -0.1595719 0.98800004 1056832
-0.092654668 -0.16128771 0.98800004 12685934
-0.094370469 -0.15699816 0.98800004 5713992
-0.092654668 -0.15614025 0.98800004 1056832
-0.094370469 -0.1544244 0.98800004 1056832
-0.092082709 -0.1515647 0.98800009 8740952
-0.089223005 -0.15099277 0.98800004 14673117
-0.094370469 -0.14927691 0.98800004 9786996
-0.091796733 -0.14841901 0.98800004 7168871
-0.089223005 -0.1475611 0.98800004 14739420
-0.092082709 -0.14470139 0.98800009 4670802
-0.089223005 -0.14498734 0.98800004 14541021
-0.092654668 -0.14241362 0.98800004 1056832
-0.091214933 -0.16521952 0.99100006 1056832
-0.091214933 -0.16349849 0.99100006 1056832
-0.092075467 -0.16091694 0.99100006 6838357
-0.09178862 -0.15776172 0.99100006 4867405
-0.088633388 -0.15661436 0.99100006 14869218
-0.091788635 -0.15431963 0.99100006 5593696
-0.089493923 -0.15317225 0.99100006 14738144
-0.087772846 -0.15145124 0.99100006 14935259
-0.086051837 -0.15145124 0.99100006 14867162
-0.088346541 -0.14915651 0.99100006 14869978
-0.087772846 -0.14542761 0.99100006 14933978
-0.091491066 -0.16054097 0.99400002 14669220
-0.089764841 -0.15881468 0.99400002 14803937
-0.088613987 -0.1547868 0.99400008 14868959
