# .PCD v0.7 - Point Cloud Data file format
VERSION 0.7
FIELDS x y z rgba
SIZE 4 4 4 4
TYPE F F F U
COUNT 1 1 1 1
WIDTH 1132
HEIGHT 1
VIEWPOINT 0 0 0 1 0 0 0
POINTS 1132
DATA ascii
0.22660027 -0.1578109 0.93200004 12623210
0.22875838 -0.15754116 0.93200004 14069108
0.22417238 -0.15457377 0.93200004 11966825
0.22660027 -0.15457377 0.93200004 14006155
0.22902814 -0.15457377 0.93200004 14202237
0.23145597 -0.15376449 0.93200004 14334079
0.22174457 -0.15214589 0.93200004 6450823
0.2241724 -0.15133661 0.93200004 12560272
0.22660027 -0.15133661 0.93200004 14202508
0.22902814 -0.15133661 0.93200004 14398857
0.23226526 -0.15133661 0.93200004 14398093
0.22174457 -0.1472902 0.93200004 11829595
0.2241724 -0.14809948 0.93200004 14006676
0.22660027 -0.14809948 0.93200004 14399622
0.22902814 -0.14809947 0.93200004 14136199
0.23199551 -0.14782973 0.93200004 13737849
0.22120504 -0.14459255 0.93200004 8074277
0.22417238 -0.14486231 0.93200004 12953968
0.22660027 -0.14486231 0.93200004 14531724
0.22902814 -0.14486231 0.93200004 14399372
0.23226526 -0.14486231 0.93200004 13740418
0.22093529 -0.14243445 0.93200004 4788270
0.2241724 -0.14243445 0.93200004 11901281
0.226114 -0.14212881 0.93000007 14334614
0.22902814 -0.14243445 0.93200004 14335114
0.23226526 -0.14243445 0.93200004 13871486
0.23469314 -0.14243445 0.93200004 13740166
0.22174457 -0.14081587 0.93200004 4063559
0.22417238 -0.1400066 0.93200004 11442030
0.22660027 -0.1400066 0.93200004 14334364
0.22902814 -0.1400066 0.93200004 14334347
0.23226526 -0.1400066 0.93200004 13543547
0.23523268 -0.13973685 0.93200004 13279361
0.2379303 -0.13919732 0.93200004 13345159
0.22174457 -0.13596016 0.93200004 11762032
0.22405168 -0.1366965 0.93150008 12890523
0.22681448 -0.13630518 0.9306668 14530197
0.22976518 -0.1366965 0.93040007 14071189
0.2325744 -0.13647595 0.93000007 13542014
0.23550244 -0.13676944 0.93200004 13479039
0.2379303 -0.13676944 0.93200004 13676158
0.2240517 -0.13346022 0.93150008 13809813
0.22704312 -0.13331696 0.93050003 14268559
0.23015177 -0.13324577 0.93000007 13413256
0.2325744 -0.13324577 0.93000007 13213536
0.23523268 -0.13380206 0.93200004 13343605
0.22174457 -0.12948589 0.93200004 13876896
0.22417238 -0.13029517 0.93200004 13809814
0.22704312 -0.1300859 0.93050009 14071443
0.23039836 -0.13015537 0.93100005 13875855
0.23307456 -0.13029516 0.93200004 13546876
0.23469314 -0.13029516 0.93200004 13348220
0.22120504 -0.12678826 0.93200004 13943191
0.2237417 -0.12723631 0.93133342 13482651
0.22692156 -0.12759289 0.93000007 14136213
0.22983743 -0.1278673 0.93200004 14201487
0.23226526 -0.12705801 0.93200004 13873540
0.23469314 -0.1278673 0.93200004 13474432
0.22093529 -0.12382087 0.93200004 12492137
0.22393098 -0.12449557 0.93100005 13415825
0.22692156 -0.12517026 0.93000007 14136209
0.22934422 -0.12517026 0.93000007 14201481
0.23226526 -0.12382087 0.93200004 13939334
0.22093529 -0.121393 0.93200004 10715159
0.223931 -0.12207031 0.93100005 13151597
0.22692156 -0.12274762 0.93000007 13805698
0.22959083 -0.12207031 0.93100005 13937787
0.23226526 -0.121393 0.93200004 13939329
0.23469314 -0.121393 0.93200004 14072968
0.21850741 -0.11977441 0.93200004 8164458
0.22120504 -0.11923489 0.93200004 9385533
0.223931 -0.11802908 0.93100005 12687463
0.2309593 -0.11951739 0.93000007 13872507
0.23307456 -0.11896513 0.93200004 13741180
0.23537652 -0.11890174 0.93150008 13611904
0.22093527 -0.11572799 0.93200004 9836108
0.22369134 -0.11547965 0.93000007 12423530
0.2325744 -0.11547965 0.93000007 13016415
0.23499706 -0.11547965 0.93000007 12753272
0.23873958 -0.11572799 0.93200004 3551069
0.22120504 -0.1127606 0.93200004 11154236
0.22393098 -0.11237015 0.93100005 12752986
0.226114 -0.11144192 0.93000007 13409396
0.2309593 -0.11144192 0.93000007 13476997
0.2325744 -0.11224945 0.93000007 13476475
0.23550242 -0.11249085 0.93200004 6707062
0.23873958 -0.11249085 0.93200004 330835
0.24116743 -0.11168157 0.93200004 12562803
0.22174457 -0.1092537 0.93200004 12025415
0.22358195 -0.109366 0.9306668 12822892
0.22692156 -0.10821171 0.93000007 13673080
0.23042095 -0.10875007 0.93000007 13674870
0.2325744 -0.10901925 0.93000007 13741953
0.23550244 -0.1092537 0.93200004 3683939
0.23873958 -0.1092537 0.93200004 6047855
0.24170695 -0.10898395 0.93200004 330835
0.22066551 -0.10628632 0.93200004 12147840
0.22369134 -0.1065966 0.93000007 12757118
0.2309593 -0.1065966 0.93000007 13873280
0.2325744 -0.1065966 0.93000007 330835
0.23525062 -0.10671122 0.93100005 330835
0.23873958 -0.10601656 0.93200004 330835
0.24197671 -0.10601656 0.93200004 7038857
0.22088781 -0.10397887 0.9306668 12625565
0.22288381 -0.10417396 0.93000007 12956026
0.2325744 -0.10498152 0.93000007 330835
0.23499706 -0.10417396 0.93000007 7234687
0.23848429 -0.10347754 0.93100005 330835
0.24197671 -0.10358869 0.93200004 330835
0.21850741 -0.10197014 0.93200004 12761499
0.22081631 -0.10110614 0.93150008 12696478
0.22288381 -0.10094376 0.93000007 12681300
0.23848429 -0.1010523 0.93100005 6577521
0.24197671 -0.10116084 0.93200004 330835
0.22093529 -0.097923696 0.93200004 12170904
0.22342217 -0.097444378 0.93000007 12482368
0.23866782 -0.098053381 0.9306668 11768452
0.24224648 -0.097653925 0.93200004 4340833
0.22120504 -0.094956301 0.93200004 11838856
0.22342217 -0.094752535 0.93000007 12216897
0.2390348 -0.094483346 0.93000007 12491154
0.24184734 -0.094636172 0.93150008 330835
0.24440458 -0.094686538 0.93200004 6048615
0.24602316 -0.093877263 0.93200004 330835
0.22174457 -0.091449395 0.93200004 8559669
0.22342217 -0.090983972 0.93000007 10825241
0.2390348 -0.091253147 0.93000007 13211783
0.24184732 -0.091400765 0.93150008 6573420
0.24440458 -0.091449395 0.93200004 6575990
0.24602316 -0.09064012 0.93200004 13476775
0.22174457 -0.088212252 0.93200004 8948298
0.22342217 -0.088292137 0.93000007 10759460
0.2390348 -0.088022947 0.93000007 330835
0.24171795 -0.088117592 0.93100011 330835
0.24440458 -0.088212252 0.93200004 6639206
0.24602316 -0.088212252 0.93200004 6707806
0.22174457 -0.084975101 0.93200004 8946990
0.22288381 -0.085600294 0.93000007 10158337
0.23822726 -0.085600294 0.93000007 12426104
0.24197671 -0.084975094 0.93200004 330835
0.24440458 -0.084975101 0.93200004 330835
0.24602316 -0.085784376 0.93200004 12428853
0.22174457 -0.082547233 0.93200004 11177832
0.22342217 -0.082908466 0.93000007 11167042
0.23822725 -0.083177656 0.93000007 6774386
0.24197671 -0.082547233 0.93200004 6972539
0.24440458 -0.082547233 0.93200004 13156260
0.22174457 -0.080928683 0.93200004 13545046
0.22393186 -0.080032557 0.93100011 11244385
0.226114 -0.079139896 0.93000007 9664846
0.2309593 -0.079139896 0.93000007 7568232
0.2325744 -0.079139896 0.93000007 8225631
0.23543529 -0.079735003 0.9306668 7826524
0.23848343 -0.080032557 0.93100005 8682854
0.24197671 -0.080119386 0.93200004 9274228
0.24440458 -0.080928683 0.93200004 14925964
0.2249817 -0.07769154 0.93200004 4816530
0.22716469 -0.077608183 0.93100005 6573703
0.22958995 -0.076798886 0.93100005 6921879
0.23236832 -0.076556906 0.93133342 6580019
0.23537652 -0.076840565 0.93150008 4269882
0.23873958 -0.076882243 0.93200004 4522575
0.23469314 -0.074454397 0.93200004 11500666
0.23873958 -0.072835803 0.93200004 5677777
0.23873958 -0.070407927 0.93200004 6579824
0.22408208 -0.1940421 0.93500006 12826718
0.22651777 -0.1940421 0.93500006 12825705
0.22976536 -0.1940421 0.93500006 13280613
0.23220101 -0.1940421 0.93500006 10917209
0.22408208 -0.19079453 0.93500006 5196158
0.22651777 -0.19079454 0.93500006 4922205
0.22976534 -0.19079453 0.93500006 13282940
0.23220101 -0.19079453 0.93500006 11507082
0.22327021 -0.18754697 0.93500006 4081553
0.22651777 -0.18754697 0.93500006 3680883
0.22976536 -0.18754697 0.93500006 14533771
0.23274228 -0.18727633 0.93500012 14402445
0.22327021 -0.18511133 0.93500006 3753872
0.22651777 -0.18429941 0.93500006 3546505
0.22976536 -0.18429942 0.93500006 14271379
0.23220101 -0.18429941 0.93500006 14794125
0.22083454 -0.18023995 0.93500006 8561267
0.22245833 -0.18105185 0.93500006 8883858
0.22651777 -0.18105185 0.93500006 3540107
0.22976536 -0.18105185 0.93500006 14138768
0.23274228 -0.18078122 0.93500012 14465414
0.23544858 -0.18105185 0.93500006 14465414
0.22408208 -0.1786162 0.93500006 2950056
0.22651777 -0.1786162 0.93500006 3479709
0.22976536 -0.1786162 0.93500006 14007696
0.2330129 -0.1786162 0.93500006 14400129
0.23544858 -0.1786162 0.93500006 14465413
0.22327021 -0.1761805 0.93500006 7954067
0.22651778 -0.1761805 0.93500006 9734311
0.22976536 -0.1761805 0.93500006 14071944
0.23301288 -0.1761805 0.93500006 14334074
0.23544858 -0.17618051 0.93500006 14595964
0.22083454 -0.17293295 0.93500006 9396601
0.22327021 -0.17293295 0.93500006 10650478
0.22651777 -0.17293295 0.93500006 12820614
0.22976536 -0.17293294 0.93500006 13941097
0.23301288 -0.17293295 0.93500006 12622187
0.23544858 -0.17293295 0.93500006 12294246
0.23707238 -0.17212106 0.93500006 12159585
0.22083454 -0.16968536 0.93500006 10051418
0.22245833 -0.16968536 0.93500006 10190416
0.22732967 -0.17049727 0.93500006 13410446
0.22895345 -0.17049727 0.93500006 14333302
0.23301288 -0.16968536 0.93500006 12814950
0.23544858 -0.16968536 0.93500006 12949346
0.23707238 -0.16968536 0.93500006 12813661
0.22083454 -0.1664378 0.93500006 10643768
0.22245833 -0.1664378 0.93500006 9852466
0.22895345 -0.1656259 0.93500006 14527327
0.23274228 -0.16616717 0.93500012 12089938
0.23544858 -0.1664378 0.93500006 10115405
0.23707238 -0.1664378 0.93500006 10370638
0.22083454 -0.16319023 0.93500006 12299623
0.22245833 -0.16400214 0.93500006 11246450
0.22976536 -0.16400214 0.93500006 13279581
0.2330129 -0.16319023 0.93500006 10180946
0.23544858 -0.16319023 0.93500006 11896695
0.23707238 -0.16319023 0.93500006 12033957
0.22002265 -0.15994267 0.93500006 9799531
0.23057725 -0.15913077 0.93500006 13936514
0.23301288 -0.15994267 0.93500006 12820610
0.23544858 -0.15994267 0.93500006 13877401
0.23707238 -0.16075458 0.93500006 13481914
0.22083454 -0.157507 0.93500006 7747889
0.2330129 -0.157507 0.93500006 13939068
0.23544858 -0.157507 0.93500006 14134413
0.23707238 -0.157507 0.93500006 14003100
0.22083454 -0.15425944 0.93500006 7948949
0.22245833 -0.15507132 0.93500006 6357356
0.23328352 -0.15534195 0.93500012 14069632
0.23544858 -0.15507132 0.93500006 14135956
0.23761365 -0.1548007 0.93500012 14004647
0.22083454 -0.15182376 0.93500006 9401735
0.22245833 -0.15101188 0.93500006 10067089
0.23544858 -0.15182376 0.93500006 14135440
0.23788425 -0.15182376 0.93500006 13937551
0.22029328 -0.14830557 0.93500012 11448132
0.22245833 -0.14938807 0.93500006 13746294
0.23382479 -0.14938807 0.93500006 13541504
0.23544858 -0.1485762 0.93500006 13344897
0.23788427 -0.1485762 0.93500006 13214092
0.24031992 -0.1485762 0.93500006 13279374
0.22083454 -0.14614052 0.93500006 9240848
0.23544858 -0.14532861 0.93500006 13544074
0.23788427 -0.14532861 0.93500006 13479060
0.22083454 -0.14126915 0.93500006 4130117
0.23788425 -0.14208105 0.93500006 13674638
0.24031992 -0.14208105 0.93500006 13610129
0.22083454 -0.13883348 0.93500006 4524056
0.22245833 -0.13883348 0.93500006 5185360
0.24031992 -0.13883348 0.93500006 13215366
0.22083454 -0.13639782 0.93500006 6947397
0.24113181 -0.13639782 0.93500006 13610107
0.22245833 -0.13396212 0.93500006 13813650
0.23815489 -0.1336915 0.93500012 13344634
0.24031992 -0.13396212 0.93500006 13278065
0.22083454 -0.13071457 0.93500006 7066512
0.22245833 -0.13152646 0.93500006 124537
0.23788425 -0.13071458 0.93500006 13215105
0.24031992 -0.13071457 0.93500006 13479824
0.22002265 -0.12746701 0.93500006 124537
0.23544858 -0.12665512 0.93500006 13611403
0.23788425 -0.12746701 0.93500006 13080716
0.24031992 -0.12746701 0.93500006 13019026
0.21921074 -0.12421944 0.93500006 8293697
0.23544858 -0.12421944 0.93500006 13808787
0.23788425 -0.12421944 0.93500006 3618916
0.24031992 -0.12421944 0.93500006 7233890
0.21758696 -0.12015995 0.93500006 124537
0.21921074 -0.12178375 0.93500006 7244615
0.23815489 -0.12124249 0.93500012 9272432
0.24086118 -0.12070122 0.93500012 4669525
0.2443794 -0.12015995 0.93500006 330835
0.21596317 -0.11853619 0.93500006 124537
0.21758696 -0.11853619 0.93500006 124537
0.22002265 -0.11853619 0.93500006 9588586
0.23869616 -0.11853619 0.93500006 330835
0.24113181 -0.11853619 0.93500006 6511214
0.2443794 -0.11853619 0.93500006 6510444
0.21921074 -0.11528862 0.93500006 11313291
0.24194372 -0.1161005 0.93500006 330835
0.2443794 -0.1161005 0.93500006 330835
0.24681509 -0.11528862 0.93500006 330835
0.22083454 -0.11204106 0.93500006 11469608
0.24194372 -0.11366482 0.93500006 330835
0.2443794 -0.11285293 0.93500006 3355997
0.24681509 -0.11285294 0.93500006 330835
0.22083454 -0.10960537 0.93500006 11796770
0.24465004 -0.109876 0.93500012 4206951
0.24681509 -0.1087935 0.93500006 330835
0.24519129 -0.10635781 0.93500006 6973318
0.24519129 -0.10311025 0.93500006 330835
0.24681509 -0.10229838 0.93500006 330835
0.21921074 -0.099050812 0.93500006 13748404
0.24194372 -0.099050812 0.93500006 12426371
0.24519129 -0.099862687 0.93500006 12756101
0.24762696 -0.099862687 0.93500006 3354718
0.25087452 -0.099050812 0.93500006 330835
0.25412211 -0.099862687 0.93500006 6576746
0.21921074 -0.097427003 0.93500006 13813692
0.24519129 -0.097427003 0.93500006 11179133
0.24762696 -0.097427003 0.93500006 7295345
0.25087452 -0.097427003 0.93500006 330835
0.25412211 -0.097427003 0.93500006 330835
0.22002265 -0.094991311 0.93500006 13226151
0.2478976 -0.095261946 0.93500012 330835
0.25087452 -0.094991311 0.93500006 6312818
0.25412211 -0.094991319 0.93500006 3289448
0.25655776 -0.094991311 0.93500006 330835
0.25818157 -0.094179437 0.93500006 7036518
0.22083454 -0.091743752 0.93500006 10325347
0.2478976 -0.092014372 0.93500012 4735345
0.25060391 -0.092014372 0.93500012 330835
0.25439274 -0.092014372 0.93500012 8220023
0.25655776 -0.091743752 0.93500006 330835
0.25818157 -0.092555627 0.93500006 330835
0.22083454 -0.088496193 0.93500006 11451518
0.24843884 -0.088496193 0.93500006 330835
0.25006264 -0.088496193 0.93500006 6905482
0.22029328 -0.085519254 0.93500012 6857816
0.2478976 -0.084978007 0.93500012 330835
0.25006264 -0.085248627 0.93500006 330835
0.22083454 -0.08281295 0.93500006 11568512
0.24762696 -0.082001068 0.93500006 330835
0.25006264 -0.082001068 0.93500006 6708322
0.22083454 -0.079565383 0.93500006 10265112
0.22245833 -0.079565383 0.93500006 9475396
0.24519129 -0.079565383 0.93500006 11971189
0.24762696 -0.079565383 0.93500006 6249571
0.22354083 -0.077400357 0.93500012 6904487
0.22651777 -0.076317817 0.93500006 10982336
0.24194372 -0.077129722 0.93500006 5705786
0.2443794 -0.077129722 0.93500006 7618599
0.24681509 -0.077941626 0.93500006 9460817
0.22408208 -0.07469406 0.93500006 15718571
0.22976536 -0.07469406 0.93500006 16710296
0.23274228 -0.074152797 0.93500012 13873534
0.23544858 -0.073070258 0.93500006 9804242
0.23761365 -0.074152797 0.93500012 5273517
0.24113181 -0.07469406 0.93500006 2901374
0.23382479 -0.069822691 0.93500006 6586423
0.23544858 -0.070634574 0.93500006 3752780
0.23707238 -0.070634574 0.93500006 3816531
0.22130692 -0.19527081 0.93700004 13083513
0.22293419 -0.19527081 0.93700004 14530932
0.2351386 -0.19527081 0.93700004 11374166
0.22130692 -0.19282991 0.93700004 11180944
0.22293419 -0.19282991 0.93700004 10589815
0.2351386 -0.19282992 0.93700004 11374957
0.22130692 -0.19038902 0.93700004 8355462
0.22293419 -0.19038902 0.93700004 7492746
0.23432496 -0.19038902 0.93700004 12161692
0.22130692 -0.18794814 0.93700004 5990561
0.2354098 -0.18821935 0.93700004 12892556
0.23757948 -0.1871345 0.93700004 13484427
0.22130692 -0.18469363 0.93700004 6516120
0.22374779 -0.18388 0.93700004 5597582
0.23513858 -0.18469363 0.93700004 14793605
0.23757948 -0.18469363 0.93700004 14794380
0.22456141 -0.18143913 0.93700004 4415145
0.23432496 -0.18225276 0.93700004 14530944
0.23757948 -0.18143913 0.93700004 14399629
0.22130692 -0.17818461 0.93700004 7497364
0.22293419 -0.17899825 0.93700004 5912472
0.23757948 -0.17818461 0.93700004 14464652
0.22130692 -0.17574374 0.93700004 7624590
0.23757948 -0.1749301 0.93700004 14003301
0.23920675 -0.17248924 0.93700004 12755572
0.21967965 -0.17004833 0.93700004 9927509
0.23920675 -0.17004833 0.93700004 12752995
0.21967965 -0.16679381 0.93700004 11433520
0.23920675 -0.16679381 0.93700004 10636626
0.21967965 -0.16353929 0.93700004 12693372
0.23920675 -0.16353929 0.93700004 12165536
0.23839311 -0.16028479 0.93700004 13741998
0.22022209 -0.15675907 0.93700004 8607841
0.23920675 -0.15703027 0.93700004 13868696
0.21967965 -0.15458941 0.93700004 9533320
0.21967965 -0.15214851 0.93700004 10649195
0.21967965 -0.14970762 0.93700004 12163423
0.21967965 -0.14563946 0.93700004 7425835
0.24083398 -0.14482583 0.93700004 13545875
0.21967965 -0.14238495 0.93700004 4076603
0.24246123 -0.14157131 0.93700004 13279380
0.21967965 -0.13913044 0.93700004 2326616
0.24246123 -0.13913044 0.93700004 12952717
0.24408852 -0.13831681 0.93700004 13348244
0.22022209 -0.13560472 0.93700004 2538359
0.24246123 -0.13506229 0.93700004 13344378
0.24463093 -0.13560472 0.93700004 13151370
0.22130692 -0.13343507 0.93700004 124537
0.24246123 -0.13343507 0.93700004 13147527
0.24408852 -0.13343507 0.93700004 12492436
0.21967965 -0.13099417 0.93700004 13878437
0.24246123 -0.13099417 0.93700004 13873038
0.21967965 -0.12855327 0.93700004 14207136
0.24246123 -0.12773965 0.93700004 13015681
0.24408852 -0.12855327 0.93700004 13343070
0.21805239 -0.12448515 0.93700004 124537
0.24246123 -0.12448515 0.93700004 330835
0.24490213 -0.12448515 0.93700004 10652808
0.24734303 -0.12448515 0.93700004 13676943
0.21696755 -0.12150183 0.93700004 8048021
0.24246123 -0.12204426 0.93700004 330835
0.24490213 -0.12204426 0.93700004 330835
0.24788545 -0.1209594 0.93700004 330835
0.21967965 -0.11716247 0.93700004 11312780
0.24815667 -0.1179761 0.93700004 3551840
0.25059754 -0.11716247 0.93700004 330835
0.21805239 -0.11553523 0.93700004 124537
0.24897027 -0.11553523 0.93700004 13210230
0.25059754 -0.11553523 0.93700004 330835
0.2522248 -0.11553523 0.93700004 13404279
0.21805239 -0.11309434 0.93700004 6411170
0.21967965 -0.11309434 0.93700004 11443324
0.24897027 -0.11309434 0.93700004 330835
0.25059754 -0.11228072 0.93700004 330835
0.21805239 -0.10902621 0.93700004 124537
0.21967965 -0.10983983 0.93700004 11627628
0.24842787 -0.11011104 0.93700004 4670052
0.25059754 -0.10983983 0.93700004 7102579
0.2522248 -0.10902621 0.93700004 13869187
0.21805239 -0.10577171 0.93700004 12487050
0.21967965 -0.10658532 0.93700004 11485325
0.24815665 -0.10658532 0.93700004 330835
0.25059754 -0.10658532 0.93700004 330835
0.21805239 -0.10333081 0.93700004 6473084
0.21967965 -0.10414442 0.93700004 11891354
0.24842787 -0.10360201 0.93700004 9142396
0.25059754 -0.10333081 0.93700004 6709090
0.25303841 -0.10333081 0.93700004 6774125
0.25547934 -0.1025172 0.93700004 11577239
0.21805239 -0.1000763 0.93700004 6870164
0.21967965 -0.10088991 0.93700004 13680807
0.25059754 -0.10088991 0.93700004 330835
0.2522248 -0.10088991 0.93700004 330835
0.25710654 -0.10088991 0.93700004 13024639
0.21805239 -0.096821763 0.93700004 6936474
0.21967965 -0.094380893 0.93700004 13880221
0.21805239 -0.091126382 0.93700004 12114083
0.21967965 -0.091940001 0.93700004 12102784
0.25303841 -0.091126382 0.93700004 7036027
0.25873381 -0.091126382 0.93700004 330835
0.21805239 -0.088685483 0.93700004 6479507
0.21967965 -0.088685483 0.93700004 13880717
0.25303841 -0.08868549 0.93700004 9929853
0.25602174 -0.088956699 0.93700004 4538461
0.25873381 -0.089499101 0.93700004 330835
0.21805239 -0.08543098 0.93700004 6212721
0.21967965 -0.084617361 0.93700004 124537
0.25303841 -0.08543098 0.93700004 3288667
0.25602174 -0.085159779 0.93700004 4538969
0.21750997 -0.082447678 0.93700004 4248441
0.22049329 -0.082176469 0.93700004 12686940
0.25276721 -0.082447678 0.93700004 4405085
0.25547934 -0.082990088 0.93700004 13613175
0.22130692 -0.078108341 0.93700004 7034728
0.25059754 -0.07973557 0.93700004 330835
0.2522248 -0.07973557 0.93700004 330835
0.22130692 -0.076481059 0.93700004 10372793
0.22293419 -0.076481059 0.93700004 10054341
0.22700231 -0.07485383 0.93700004 16708002
0.23107046 -0.073226549 0.93700004 11516282
0.23432496 -0.073226549 0.93700004 10395325
0.23269771 -0.071599275 0.93700004 5273714
0.23432496 -0.071599275 0.93700004 6651514
0.21875054 -0.19263108 0.94000006 11769994
0.220383 -0.19344729 0.94000006 11771788
0.23834014 -0.19344729 0.94000006 11769724
0.21875054 -0.19099858 0.94000006 9137036
0.220383 -0.19018236 0.94000006 7893392
0.23670767 -0.19099858 0.94000006 11833232
0.23834014 -0.19018236 0.94000006 11901573
0.21875054 -0.18773365 0.94000006 6514084
0.220383 -0.18691742 0.94000006 6252449
0.22201549 -0.18283628 0.94000006 9668739
0.220383 -0.1787551 0.94000006 8544144
0.21875054 -0.17549017 0.94000006 6247277
0.220383 -0.17549017 0.94000006 7430777
0.21875054 -0.17222525 0.94000006 10191465
0.220383 -0.17304149 0.94000006 9404014
0.24160507 -0.17140901 0.94000006 13741432
0.21875054 -0.1689603 0.94000006 10320160
0.24160507 -0.1689603 0.94000006 13143374
0.21875054 -0.1665116 0.94000006 9992779
0.24160507 -0.1665116 0.94000006 11500651
0.21875054 -0.16406289 0.94000006 12170640
0.24160507 -0.16406289 0.94000006 12558746
0.24487001 -0.16324665 0.94000006 11631994
0.21820639 -0.1605259 0.94000006 7256454
0.23997262 -0.15998173 0.94000006 14003106
0.24160507 -0.16079798 0.94000006 12953249
0.24487001 -0.16161422 0.94000006 11629405
0.21875054 -0.15753303 0.94000006 10328697
0.24160507 -0.15753303 0.94000006 13738386
0.24432585 -0.15726095 0.94000006 13740944
0.21820639 -0.15399604 0.94000006 10186342
0.24160507 -0.15426812 0.94000006 14203039
0.24323753 -0.15426812 0.94000006 14400410
0.21875054 -0.15100318 0.94000006 11170646
0.24160507 -0.15181942 0.94000006 13805698
0.24323753 -0.15100318 0.94000006 13674374
0.24650249 -0.15018693 0.94000006 13410700
0.21875054 -0.14855449 0.94000006 124537
0.24323753 -0.14855449 0.94000006 13280914
0.21875054 -0.14610577 0.94000006 4701015
0.24160507 -0.14692201 0.94000006 13280402
0.24323753 -0.14528951 0.94000006 13414557
0.21875054 -0.14284083 0.94000006 3912539
0.24432585 -0.14311293 0.94000006 13742491
0.21875054 -0.1395759 0.94000006 2787427
0.24487001 -0.14039214 0.94000006 13017494
0.24704665 -0.13930382 0.94000006 13281166
0.21875054 -0.13712722 0.94000006 124537
0.24759081 -0.13658306 0.94000006 13415298
0.220383 -0.13386229 0.94000006 12695437
0.24487001 -0.13222979 0.94000006 13281181
0.24731871 -0.13304603 0.94000006 12491404
0.24976739 -0.13222979 0.94000006 13148549
0.21875054 -0.13059735 0.94000006 14138016
0.24487001 -0.13059735 0.94000006 14070141
0.24731871 -0.13059735 0.94000006 14004104
0.24976739 -0.13059735 0.94000006 13872775
0.21875054 -0.12814865 0.94000006 6999652
0.24487001 -0.12733242 0.94000006 330835
0.24731871 -0.12814865 0.94000006 9664119
0.24976739 -0.12814865 0.94000006 330835
0.21711807 -0.12406749 0.94000006 124537
0.25058365 -0.12488371 0.94000006 330835
0.25058365 -0.12161876 0.94000006 7036524
0.21875054 -0.11753759 0.94000006 12831442
0.25139987 -0.11917007 0.94000006 330835
0.25139987 -0.11427265 0.94000006 330835
0.25384858 -0.11427265 0.94000006 5919597
0.25629729 -0.11427265 0.94000006 330835
0.21875054 -0.11100773 0.94000006 12962748
0.25384858 -0.11182397 0.94000006 3157854
0.25738561 -0.11209606 0.94000006 330835
0.25466481 -0.10937528 0.94000006 12034161
0.25711352 -0.10937528 0.94000006 5260632
0.21875054 -0.10774279 0.94000006 124537
0.25384858 -0.10692658 0.94000006 330835
0.25738561 -0.10665451 0.94000006 2169672
0.21711807 -0.10284542 0.94000006 12947602
0.25711352 -0.10447787 0.94000006 330835
0.21711807 -0.10039672 0.94000006 124537
0.25792974 -0.099580497 0.94000006 330835
0.21711807 -0.097131759 0.94000006 13614224
0.25792974 -0.097948 0.94000006 330835
0.21793431 -0.093866825 0.94000006 9879943
0.21711807 -0.09141814 0.94000006 124537
0.21711807 -0.088969439 0.94000006 12428389
0.25792974 -0.088153213 0.94000006 9406843
0.21548562 -0.085704505 0.94000006 124537
0.21711807 -0.085704505 0.94000006 11774031
0.25792974 -0.086520724 0.94000006 330835
0.25956219 -0.084888279 0.94000006 330835
0.21711807 -0.081623346 0.94000006 124537
0.220383 -0.081623346 0.94000006 13415005
0.25466481 -0.081623346 0.94000006 330835
0.25711352 -0.082439572 0.94000006 3554919
0.25956219 -0.083255798 0.94000006 65854
0.21875054 -0.079990864 0.94000006 124537
0.220383 -0.079174638 0.94000006 124537
0.25466481 -0.079174638 0.94000006 330835
0.25629729 -0.079990864 0.94000006 12890981
0.22364797 -0.075093493 0.94000006 14798758
0.22609663 -0.073461004 0.94000006 13886084
0.22936156 -0.073461004 0.94000006 12505987
0.24323753 -0.073461004 0.94000006 6203580
0.2301778 -0.071012288 0.94000006 7241321
0.23235443 -0.070740215 0.94000006 6258010
0.24323753 -0.071828507 0.94000006 330835
0.2326265 -0.067747369 0.94000006 5187865
0.23507521 -0.068563588 0.94000006 6440737
0.21921596 -0.19467685 0.94200003 11636616
0.24102852 -0.19413154 0.94200009 11900276
0.21921596 -0.18976906 0.94200003 6514840
0.24102852 -0.19031438 0.94200009 11900801
0.21921596 -0.18649717 0.94200003 6513562
0.24102852 -0.18704247 0.94200009 14467217
0.245391 -0.18813309 0.94200003 13352855
0.22085191 -0.18404326 0.94200003 8619921
0.24102852 -0.18377063 0.94200009 14465687
0.22003394 -0.18158934 0.94200003 9284767
0.24130115 -0.18158934 0.94200003 14399904
0.21921596 -0.17913544 0.94200003 7953293
0.24130116 -0.17913544 0.94200003 14464657
0.24130116 -0.17586356 0.94200003 14265991
0.21758001 -0.1717737 0.94200003 124537
0.24211912 -0.17340966 0.94200003 13807238
0.24430037 -0.17231902 0.94200009 14464900
0.21758001 -0.16931978 0.94200003 5486955
0.24457303 -0.16931978 0.94200003 13870445
0.24702697 -0.16931978 0.94200003 12752487
0.2502988 -0.16850182 0.94200003 11446831
0.2159441 -0.16522996 0.94200003 124537
0.21758001 -0.16604792 0.94200003 4103275
0.24457303 -0.16604792 0.94200003 12819082
0.24757229 -0.16577527 0.94200009 11763579
0.2159441 -0.16359399 0.94200003 124537
0.21758001 -0.16359399 0.94200003 124537
0.24375506 -0.16359399 0.94200003 13017740
0.24784493 -0.16359399 0.94200003 10381428
0.21758001 -0.16195808 0.94200003 11768651
0.24430037 -0.16086744 0.94200009 12094846
0.24784493 -0.16114008 0.94200003 11500662
0.21758001 -0.15786821 0.94200003 5684608
0.24375506 -0.15868619 0.94200003 13149066
0.24784493 -0.15786821 0.94200003 13545880
0.25084412 -0.15814088 0.94200009 13805460
0.21539879 -0.15432368 0.94200009 5074523
0.21758001 -0.15541431 0.94200003 124537
0.245391 -0.15459633 0.94200003 14203287
0.24784493 -0.15459633 0.94200003 14136210
0.2159441 -0.15132447 0.94200003 4763006
0.21758001 -0.15132447 0.94200003 5483896
0.245391 -0.15132447 0.94200003 13608070
0.2481176 -0.15159713 0.94200009 13737866
0.2502988 -0.15050648 0.94200003 13934718
0.2159441 -0.14805259 0.94200003 124537
0.21758001 -0.14805259 0.94200003 6735737
0.24484569 -0.14777993 0.94200009 13215384
0.24784493 -0.14805259 0.94200003 13345682
0.2502988 -0.14805259 0.94200003 13147781
0.2159441 -0.14559864 0.94200003 11377513
0.21758001 -0.14559864 0.94200003 124537
0.245391 -0.14559864 0.94200003 13610152
0.24784493 -0.14559864 0.94200003 13674392
0.25111678 -0.14559864 0.94200003 13214096
0.2159441 -0.14314474 0.94200003 124537
0.21758001 -0.14314474 0.94200003 5024613
0.24784493 -0.14314474 0.94200003 13806215
0.25111678 -0.14314474 0.94200003 13279363
0.2159441 -0.13987288 0.94200003 3841654
0.21758001 -0.13987288 0.94200003 7884893
0.2486629 -0.14069085 0.94200003 12754052
0.25111678 -0.13987288 0.94200003 12687502
0.2159441 -0.13741897 0.94200003 124537
0.21758001 -0.13741897 0.94200003 6710127
0.21921596 -0.13578302 0.94200003 124537
0.25111678 -0.136601 0.94200003 13151346
0.25357071 -0.13578302 0.94200003 13545856
0.25520664 -0.13578302 0.94200003 12892576
0.21758001 -0.13251112 0.94200003 124537
0.21921596 -0.13332912 0.94200003 124537
0.25138944 -0.13360178 0.94200009 13016694
0.25357071 -0.13332912 0.94200003 13873798
0.25575197 -0.13305646 0.94200009 10397576
0.21758001 -0.13005725 0.94200003 13940119
0.25193477 -0.13005725 0.94200003 7166314
0.25357071 -0.13005725 0.94200003 7298927
0.25575197 -0.13032991 0.94200009 6909295
0.21758001 -0.12760335 0.94200003 124537
0.25193477 -0.12760335 0.94200003 330835
0.25357071 -0.12760335 0.94200003 330835
0.25602463 -0.12760335 0.94200003 330835
0.2159441 -0.12514943 0.94200003 5490279
0.21758001 -0.12596738 0.94200003 10267435
0.25357071 -0.12514943 0.94200003 330835
0.25602463 -0.12514943 0.94200003 3225956
0.25847852 -0.12596738 0.94200003 330835
0.2159441 -0.12187752 0.94200003 7267998
0.25193477 -0.1226955 0.94200003 14068865
0.25357071 -0.12187752 0.94200003 14265483
0.25520664 -0.12187752 0.94200003 6185076
0.25847852 -0.12187752 0.94200003 2951244
0.2159441 -0.11860564 0.94200003 7134114
0.21758001 -0.11778767 0.94200003 124537
0.25357071 -0.11860564 0.94200003 330835
0.25520664 -0.11860564 0.94200003 11972748
0.25847852 -0.11942363 0.94200003 330835
0.2159441 -0.11533377 0.94200003 7002530
0.21758001 -0.11533377 0.94200003 7133858
0.25520664 -0.11615175 0.94200003 11700876
0.2159441 -0.11206189 0.94200003 13945799
0.21758001 -0.11206189 0.94200003 7133597
0.25684261 -0.11124391 0.94200003 330835
0.2159441 -0.109608 0.94200003 124537
0.21758001 -0.109608 0.94200003 124537
0.2159441 -0.10715407 0.94200003 124537
0.21758001 -0.10715407 0.94200003 6742414
0.25684261 -0.10797203 0.94200003 330835
0.21539879 -0.10360955 0.94200009 4775304
0.21758001 -0.10470016 0.94200003 124537
0.25847852 -0.10306425 0.94200003 330835
0.2159441 -0.10061032 0.94200003 6806927
0.2159441 -0.097338423 0.94200003 6799479
0.2159441 -0.094066545 0.94200003 6468194
0.2159441 -0.091612652 0.94200003 124537
0.21512613 -0.089158736 0.94200003 5816160
0.2126722 -0.086704805 0.94200003 124537
0.21430814 -0.085886851 0.94200003 5485661
0.21539879 -0.082887635 0.94200009 4249220
0.25847852 -0.081797019 0.94200003 330835
0.21758001 -0.079343095 0.94200003 5617293
0.21921596 -0.078525141 0.94200003 9858725
0.25111678 -0.078525141 0.94200003 10120542
0.25357071 -0.078525141 0.94200003 330835
0.25847852 -0.08016105 0.94200003 330835
0.22085191 -0.07688918 0.94200003 124537
0.22248785 -0.075253263 0.94200003 13813409
0.245391 -0.075253263 0.94200003 4804184
0.24702697 -0.075253263 0.94200003 6246974
0.25520664 -0.07688918 0.94200003 7620928
0.22412381 -0.073617302 0.94200003 14085255
0.245391 -0.073617302 0.94200003 6446767
0.24702697 -0.073617302 0.94200003 6639971
0.22412381 -0.071163386 0.94200003 11572358
0.22657768 -0.071163386 0.94200003 10193018
0.22903161 -0.071163386 0.94200003 8487536
0.24484569 -0.070890732 0.94200009 4671033
0.24702697 -0.071163386 0.94200003 3681353
0.24457303 -0.068709463 0.94200003 330835
0.24702697 -0.068709463 0.94200003 330835
0.24453135 -0.19529684 0.94500005 12162155
0.24617252 -0.19529684 0.94500005 12228455
0.21745238 -0.19283512 0.94500005 9725033
0.24289019 -0.19283512 0.94500005 11901043
0.24453135 -0.19283512 0.94500005 11965556
0.24699309 -0.19283512 0.94500005 11638137
0.25027537 -0.19201453 0.94500005 11179130
0.21827294 -0.19037341 0.94500005 6447244
0.24453135 -0.19037341 0.94500005 11902342
0.24699309 -0.19037341 0.94500005 11576205
0.25027537 -0.19037341 0.94500005 11114902
0.2527371 -0.19037341 0.94500005 11961995
0.2177259 -0.1881852 0.94500005 6846614
0.24289019 -0.18873224 0.94500005 13485203
0.24453135 -0.18791167 0.94500005 14337173
0.24726662 -0.18763816 0.94500005 14400926
0.25027537 -0.18791167 0.94500005 13809069
0.25355768 -0.18791167 0.94500005 13744822
0.25656646 -0.18763816 0.94500005 15458519
0.21827294 -0.18544994 0.94500005 8288143
0.21991411 -0.18462938 0.94500005 8751256
0.24289019 -0.18544994 0.94500005 14727832
0.24453135 -0.18462938 0.94500005 14662040
0.24699309 -0.18462938 0.94500005 14664342
0.25027537 -0.18462938 0.94500005 14600607
0.25355768 -0.18462938 0.94500005 14335929
0.25656646 -0.18490291 0.94500005 15656662
0.21827294 -0.18052652 0.94500005 8946839
0.24453135 -0.18134707 0.94500005 14531225
0.24699309 -0.18134707 0.94500005 14466966
0.25000185 -0.1816206 0.94500005 14533790
0.25355768 -0.18216763 0.94500005 14336178
0.25683999 -0.18216763 0.94500005 15853526
0.21745238 -0.17806479 0.94500005 2329474
0.24453135 -0.17806479 0.94500005 14596237
0.24699308 -0.17806479 0.94500005 14597263
0.25027537 -0.17806479 0.94500005 14730139
0.21745238 -0.17560305 0.94500005 3516541
0.24453135 -0.17560305 0.94500005 14727568
0.24699309 -0.17560305 0.94500005 14138254
0.25027537 -0.17560305 0.94500005 14075541
0.21499066 -0.17232075 0.94500005 124537
0.21717887 -0.17341487 0.94500005 124537
0.24726662 -0.17341487 0.94500005 13412992
0.25000185 -0.17286782 0.94500005 13015407
0.21663181 -0.16985902 0.94500005 124537
0.25000188 -0.17013255 0.94500005 12294740
0.2527371 -0.16903846 0.94500005 12227339
0.21334951 -0.16575615 0.94500005 8417121
0.21663181 -0.16739729 0.94500005 124537
0.2505489 -0.16685025 0.94500005 10903895
0.2527371 -0.16657671 0.94500005 11159858
0.21334951 -0.16411498 0.94500005 6840135
0.21663181 -0.16247387 0.94500005 8722689
0.25109595 -0.16329443 0.94500005 11570295
0.25328416 -0.16302091 0.94500005 12224652
0.21499066 -0.16083269 0.94500005 124537
0.21663181 -0.16001213 0.94500005 4964744
0.25109595 -0.16083269 0.94500005 14197388
0.25383121 -0.16028565 0.94500005 13542298
0.25711352 -0.1597386 0.94500005 15852483
0.21499066 -0.15755039 0.94500005 124537
0.21663181 -0.15755039 0.94500005 124537
0.25355768 -0.15755039 0.94500005 13213332
0.25601941 -0.15755039 0.94500005 14595733
0.21389656 -0.15536222 0.94500005 2661989
0.25109595 -0.15508869 0.94500005 14266255
0.25355768 -0.15508869 0.94500005 13541003
0.25683999 -0.15508869 0.94500005 15324581
0.21417008 -0.1518064 0.94500005 5327687
0.25109595 -0.15262698 0.94500005 14135931
0.25355768 -0.15180638 0.94500005 13609080
0.25683999 -0.15180638 0.94500005 15125936
0.21417008 -0.14852408 0.94500005 5554286
0.25355768 -0.14852408 0.94500005 13145985
0.25683999 -0.14852408 0.94500005 14994349
0.21417008 -0.14524178 0.94500005 5289603
0.25437826 -0.14524177 0.94500005 13148046
0.25683999 -0.14524177 0.94500005 14796712
0.21417008 -0.14195947 0.94500005 4563841
0.25437826 -0.14195947 0.94500005 13215116
0.25683999 -0.14195947 0.94500005 14731689
0.21417008 -0.13949773 0.94500005 124537
0.25437826 -0.13949773 0.94500005 13282961
0.25683999 -0.13949773 0.94500005 14995366
0.21417008 -0.13785662 0.94500005 4093546
0.21745238 -0.13621545 0.94500005 124537
0.25437826 -0.13785662 0.94500005 13348745
0.25711352 -0.13730957 0.94500005 14207397
0.21717887 -0.13402727 0.94500005 8373129
0.25766057 -0.13457432 0.94500005 8561800
0.25930172 -0.13293314 0.94500005 4587839
0.21663181 -0.13047144 0.94500005 7134598
0.25766057 -0.12965086 0.94500005 330835
0.25930172 -0.13047144 0.94500005 2623045
0.21663181 -0.12800972 0.94500005 13276274
0.25930172 -0.12800972 0.94500005 330835
0.21499066 -0.12390684 0.94500005 11047284
0.25766057 -0.12308626 0.94500005 330835
0.21499066 -0.12144508 0.94500005 14004628
0.25766057 -0.12144508 0.94500005 330835
0.21499066 -0.11898337 0.94500005 14079423
0.25766057 -0.11980395 0.94500005 330835
0.21444361 -0.11542755 0.94500005 9230769
0.21444361 -0.11269231 0.94500005 4644244
0.21499066 -0.10913648 0.94500005 124537
0.21499066 -0.10585418 0.94500005 14273211
0.21444361 -0.10120426 0.94500005 4644488
0.21499066 -0.097648419 0.94500005 13016947
0.21417008 -0.094366118 0.94500005 9216386
0.21170835 -0.090263233 0.94500005 10508153
0.21389656 -0.09135735 0.94500005 7575422
0.21170835 -0.088622116 0.94500005 124537
0.21334951 -0.088622116 0.94500005 124537
0.21170835 -0.086160377 0.94500005 124537
0.21334951 -0.085339814 0.94500005 9854598
0.21417008 -0.082878083 0.94500005 13025693
0.21663181 -0.080416344 0.94500005 124537
0.21827294 -0.07713405 0.94500005 124537
0.22046117 -0.07603997 0.94500005 11632304
0.25027537 -0.076313488 0.94500005 3551550
0.25355768 -0.076313488 0.94500005 2957126
0.22155526 -0.073031165 0.94500005 14541704
0.2231964 -0.073031165 0.94500005 14140299
0.25027537 -0.073031165 0.94500005 1119048
0.2527371 -0.073851749 0.94500005 330835
0.22073469 -0.070569456 0.94500005 10781832
0.2231964 -0.070569456 0.94500005 10189713
0.25027537 -0.070569456 0.94500005 1246510
0.2527371 -0.070569456 0.94500005 330835
0.25027537 -0.068928286 0.94500005 460861
0.2152749 -0.19385831 0.94866675 8018279
0.25024673 -0.19427049 0.94800007 11375237
0.25353944 -0.19262411 0.94800007 12227179
0.2152749 -0.19001333 0.94866675 7040917
0.21731955 -0.19097778 0.94800007 6379904
0.25654912 -0.19138068 0.95000005 13879993
0.2152749 -0.18671831 0.94866675 7495817
0.21731955 -0.18686187 0.94800007 7764366
0.21726397 -0.18396582 0.94920009 8948882
0.21447834 -0.18148169 0.95000005 9864600
0.21747121 -0.18177578 0.94866675 9869464
0.25189307 -0.18109962 0.94800007 14598049
0.25353944 -0.18109962 0.94800007 14401446
0.25600898 -0.18109962 0.94800007 14731714
0.21496285 -0.17872474 0.94850004 2599555
0.25353944 -0.17863008 0.94800007 14466463
0.25518581 -0.17863008 0.94800007 14202037
0.21496287 -0.17542939 0.9485001 6326128
0.25189307 -0.17451419 0.94800007 13477761
0.25353944 -0.17533734 0.94800007 14005387
0.25572419 -0.17488237 0.95000005 14332582
0.21189156 -0.17231727 0.94950002 2213234
0.21457559 -0.17177022 0.94800013 10250051
0.25353944 -0.17204462 0.94800007 13409628
0.25654912 -0.17240758 0.95000005 14794155
0.21227857 -0.1693829 0.95000005 3260279
0.21472609 -0.16914439 0.94866675 6726499
0.25600898 -0.16957508 0.94800007 13870233
0.21567316 -0.16710554 0.94800007 3377003
0.25600898 -0.16710554 0.94800007 13016464
0.2128285 -0.16415843 0.95000005 124537
0.21512437 -0.16353843 0.94800013 2009688
0.25628337 -0.16408722 0.94800013 13674666
0.2128285 -0.16085875 0.95000005 124537
0.21457559 -0.16024572 0.94800013 9475998
0.25683215 -0.16134328 0.94800007 14993330
0.21212921 -0.15717414 0.94933337 4443003
0.21402681 -0.15805057 0.94800007 124537
0.21177955 -0.15409705 0.94900006 4230739
0.21157925 -0.15112822 0.94933337 3195230
0.21197985 -0.14882541 0.94866675 124537
0.21177953 -0.14585656 0.949 5683843
0.21177953 -0.14256035 0.949 6214544
0.21197985 -0.13949022 0.94866675 2866554
0.2128285 -0.13611126 0.95000005 124537
0.21484998 -0.1358247 0.94800007 4889969
0.21200359 -0.13363649 0.95000005 10655897
0.21484998 -0.13335516 0.94800007 124537
0.2128285 -0.13116176 0.95000005 11907998
0.21507575 -0.13102369 0.949 6864525
0.2128285 -0.1278621 0.95000005 6739349
0.21507576 -0.12772751 0.94900006 6080654
0.21227857 -0.12428745 0.95000005 3654518
0.21402681 -0.1243002 0.94800007 124537
0.21189156 -0.12119935 0.94950008 7115887
0.21402681 -0.12100746 0.94800007 5413231
0.2128285 -0.11796308 0.95000005 12035222
0.21402681 -0.1185379 0.94800007 12769469
0.21177955 -0.11536676 0.94900006 7002002
0.21402681 -0.11689157 0.94800007 124537
0.21197985 -0.11312996 0.94866675 3910274
0.21402681 -0.11195248 0.94800007 124537
0.21260446 -0.10959756 0.94900006 7135635
0.21402681 -0.10948294 0.94800007 7003810
0.21238044 -0.10619023 0.94800007 6999418
0.21402681 -0.10619023 0.94800007 7068576
0.21260446 -0.10300519 0.94900006 6207349
0.21402681 -0.1037207 0.94800007 124537
0.21238044 -0.10042799 0.94800007 124537
0.21402681 -0.10042799 0.94800007 124537
0.21177953 -0.09806174 0.949 3066753
0.21402681 -0.097958416 0.94800007 6341511
0.20952885 -0.094865412 0.95000005 6806406
0.21155727 -0.094665699 0.94800007 6078097
0.20952885 -0.091565743 0.95000005 124537
0.21128288 -0.091647379 0.94800013 3913848
0.20952885 -0.08826609 0.95000005 6469744
0.21073408 -0.088080265 0.94800007 124537
0.21117866 -0.084966421 0.95000005 4572814
0.21197985 -0.082924686 0.94866675 9031574
0.21402681 -0.082318023 0.94800007 13880736
0.21260446 -0.079931825 0.94900006 7001742
0.21496287 -0.079890147 0.94850004 9619862
0.21731955 -0.079025306 0.94800007 11640734
0.21762404 -0.076938972 0.94933337 5732251
0.22021744 -0.073589504 0.94866675 5366653
0.25353944 -0.07243982 0.94800007 330835
0.25518581 -0.074086197 0.94800007 2097685
0.25404915 -0.19529513 0.95300007 11901311
0.25818679 -0.19529513 0.95300007 14865587
0.21515563 -0.19364005 0.95300007 7955055
0.25653172 -0.19364005 0.95300007 13414037
0.25818679 -0.19364005 0.95300007 14801088
0.21432811 -0.19115752 0.95300007 8091278
0.21432811 -0.18867496 0.95300007 7761553
0.21460395 -0.18426149 0.95300007 6774697
0.21350059 -0.18122727 0.95300007 4630920
0.25818679 -0.18039973 0.95300007 15325900
0.21184555 -0.17708963 0.95300007 124537
0.21350059 -0.17791717 0.95300007 124537
0.25653172 -0.17708963 0.95300007 14267567
0.21184555 -0.17543462 0.95300007 5197708
0.21350059 -0.17543462 0.95300007 5199219
0.21019052 -0.17295203 0.95300007 3644542
0.21074221 -0.16936611 0.95300007 2998645
0.21101803 -0.16633186 0.95300007 4169578
0.21350059 -0.16715939 0.95300007 10122829
0.21129386 -0.16329762 0.95300007 4512128
0.21101803 -0.16053922 0.95300007 124537
0.21074221 -0.1583325 0.95300007 7315308
0.21019052 -0.15474656 0.95300007 4494417
0.21019052 -0.15143648 0.95300007 124537
0.21019052 -0.14812636 0.95300007 5877090
0.21019052 -0.14564382 0.95300007 10196327
0.21019052 -0.14316124 0.95300007 124537
0.21074221 -0.13957533 0.95300007 124537
0.20853548 -0.13736859 0.95300007 124537
0.21101803 -0.13654107 0.95300007 2875513
0.21074221 -0.13295516 0.95300007 124537
0.21101803 -0.12992091 0.95300007 3463039
0.21101803 -0.12743834 0.95300007 6804624
0.21074221 -0.12523162 0.95300007 4576389
0.21019052 -0.12164567 0.95300007 7526019
0.21184555 -0.11833559 0.95300007 5469540
0.21184555 -0.11254293 0.95300007 11690898
0.21184555 -0.11006039 0.95300007 124537
0.21184555 -0.1067503 0.95300007 6325596
0.21129386 -0.10371607 0.95300007 3981430
0.21074221 -0.10040598 0.95300007 8303230
0.21019052 -0.097647533 0.95300007 124537
0.20853548 -0.094337456 0.95300007 124537
0.20853548 -0.091027372 0.95300007 124537
0.20853548 -0.088544816 0.95300007 6203742
0.21019052 -0.085234731 0.95300007 4964223
0.21074221 -0.081648812 0.95300007 4513163
0.21184555 -0.079442106 0.95300007 13945763
0.21432811 -0.076959521 0.95300007 306310
0.21763822 -0.076132014 0.95300007 3947189
0.21515563 -0.074476957 0.95300007 124537
0.21736239 -0.073925272 0.95300007 8712857
0.22012076 -0.072821885 0.95300007 16707223
0.21515563 -0.071166866 0.95300007 124537
0.21394865 -0.19321719 0.95500004 8876150
0.21146089 -0.18990016 0.95500004 7495305
0.21229012 -0.18741238 0.95500004 6183577
0.21394865 -0.18741238 0.95500004 5853838
0.21229012 -0.18492462 0.95500004 6184365
0.21394865 -0.18575388 0.95500004 3951264
0.21229012 -0.18160757 0.95500004 5032071
0.21146089 -0.17829055 0.95500004 4181376
0.25872862 -0.17829055 0.95500004 15391436
0.21063164 -0.17580278 0.95500004 124537
0.25872862 -0.17580278 0.95500004 15391433
0.20897311 -0.17248571 0.95500004 8877430
0.20814385 -0.16999795 0.95500004 1818231
0.20814385 -0.16668093 0.95500004 3974775
0.20814386 -0.1633639 0.95500004 2675067
0.21063164 -0.16253462 0.95500004 14072727
0.20814385 -0.16004688 0.95500004 5881991
0.20897311 -0.15755911 0.95500004 9992810
0.20897311 -0.15507132 0.95500004 4561251
0.20897311 -0.15175429 0.95500004 4362342
0.20897311 -0.14843723 0.95500004 5280603
0.20814385 -0.1451202 0.95500004 4490858
0.20814385 -0.14263244 0.95500004 124537
0.20842028 -0.13986826 0.9550001 124537
0.20786743 -0.13655123 0.9550001 4378488
0.20842028 -0.13378702 0.9550001 4776334
0.20814386 -0.13019356 0.95500004 6998912
0.20814386 -0.12687653 0.95500004 3395964
0.20814385 -0.12438875 0.95500004 6279821
0.20897311 -0.12190097 0.95500004 6739344
0.21063164 -0.11858393 0.95500004 4953735
0.21063164 -0.1152669 0.95500004 124537
0.21063164 -0.11194988 0.95500004 124537
0.21063164 -0.1094621 0.95500004 10563725
0.20897311 -0.10697433 0.95500004 6280345
0.21063164 -0.10697433 0.95500004 11027330
0.20897311 -0.10365731 0.95500004 124537
0.21063164 -0.10282803 0.95500004 124537
0.20897311 -0.10034028 0.95500004 6409109
0.20842028 -0.096746802 0.9550001 8234617
0.20731458 -0.094535433 0.95500004 124537
0.20814385 -0.092876941 0.95500004 12221815
0.20731458 -0.088730641 0.95500004 5943148
0.20814386 -0.085413605 0.95500004 2537588
0.20814385 -0.082096584 0.95500004 6871705
0.20814385 -0.07960882 0.95500004 124537
0.21063164 -0.07960882 0.95500004 124537
0.2117373 -0.077397458 0.9550001 124537
0.2145015 -0.07352756 0.9550001 2874000
0.21892422 -0.072974712 0.95500004 124537
0.21394865 -0.07131622 0.95500004 12247423
0.21212515 -0.1929923 0.95800006 8411756
0.2112933 -0.18716925 0.95800006 6251418
0.2112933 -0.18384179 0.95800006 4235407
0.2112933 -0.18134619 0.95800006 124537
0.20962957 -0.17885064 0.95800006 4106369
0.2112933 -0.17968251 0.95800006 11624848
0.20962957 -0.17552318 0.95800006 124537
0.20630211 -0.17302755 0.95800006 8018290
0.20796585 -0.17302755 0.95800006 8477044
0.20796585 -0.15722218 0.95800006 4562540
0.20796585 -0.15389472 0.95800006 4364141
0.20796585 -0.15139915 0.95800006 124537
0.20796585 -0.14890353 0.95800006 4764525
0.20630211 -0.14557607 0.95800006 9330840
0.20796585 -0.14141676 0.95800006 9791118
0.20630211 -0.13892117 0.95800006 9729820
0.20630211 -0.1364256 0.95800006 10909269
0.20796585 -0.13309816 0.95800006 14669736
0.20630211 -0.13060255 0.95800006 14076823
0.20630211 -0.12727511 0.95800006 13281167
0.20630211 -0.12394762 0.95800006 124537
0.20796585 -0.12311575 0.95800006 124537
0.20796585 -0.12145206 0.95800006 11501397
0.20962957 -0.11895645 0.95800006 124537
0.20962957 -0.115629 0.95800006 5296779
0.20962957 -0.11230156 0.95800006 124537
0.20879771 -0.1089741 0.95800006 5881735
0.20796585 -0.1064785 0.95800006 124537
0.20630211 -0.10481481 0.95800006 11862309
0.20796585 -0.10398293 0.95800006 124537
0.20796585 -0.10065548 0.95800006 6607498
0.20796585 -0.098159857 0.95800006 124537
0.20630211 -0.094832405 0.95800006 124537
0.20796585 -0.091504954 0.95800006 124537
0.20630211 -0.089009374 0.95800006 5223547
0.20630211 -0.08568193 0.95800006 5354363
0.20630211 -0.082354471 0.95800006 6477980
0.20630211 -0.079858899 0.95800006 124537
0.20879771 -0.078195155 0.95800006 10335603
0.20879771 -0.076531455 0.95800006 2924691
0.2112933 -0.076531455 0.95800006 124537
0.20879771 -0.073203951 0.95800006 7725731
0.21212515 -0.074035823 0.95800006 2414733
0.21295701 -0.071540251 0.95800006 12442268
0.21028604 -0.19359666 0.96100003 8476488
0.21028604 -0.19109327 0.96100003 7494784
0.21028604 -0.18775538 0.96100003 6646678
0.20861709 -0.18525197 0.96100003 124537
0.21028604 -0.18441752 0.96100003 3644040
0.20861709 -0.18024519 0.96100003 124537
0.21028604 -0.18191411 0.96100003 124537
0.20861709 -0.17857623 0.96100003 124537
0.20861709 -0.17607284 0.96100003 3647107
0.20694815 -0.1719005 0.96100003 124537
0.20694815 -0.16939709 0.96100003 3511895
0.20694815 -0.1660592 0.96100003 3904619
0.20694815 -0.16355579 0.96100003 124537
0.20694815 -0.16105241 0.96100003 124537
0.20639184 -0.15743636 0.96100008 7387757
0.20694815 -0.15437664 0.96100003 4431732
0.20694815 -0.15103878 0.96100003 124537
0.20611367 -0.14853534 0.96100003 10461832
0.2052792 -0.14603195 0.96100003 5021540
0.20639184 -0.14297226 0.96100008 6464377
0.2052792 -0.13935621 0.96100003 124537
0.20694815 -0.13518386 0.96100003 12767658
0.20694815 -0.13351496 0.96100003 14537123
0.2052792 -0.13017708 0.96100003 124537
0.2052792 -0.12767366 0.96100003 6735246
0.2052792 -0.12433578 0.96100003 124537
0.20694815 -0.12099791 0.96100003 5403709
0.20861709 -0.12016343 0.96100003 124537
0.20861709 -0.11849451 0.96100003 124537
0.20861709 -0.11682555 0.96100003 11836512
0.20861709 -0.11014982 0.96100003 12886640
0.20694815 -0.10347407 0.96100003 124537
0.20639184 -0.10069253 0.96100008 8701828
0.20611367 -0.097632788 0.96100003 8884365
0.20611367 -0.094294921 0.96100003 11760531
0.20611367 -0.090957046 0.96100003 4560258
0.2052792 -0.088453636 0.96100003 8934056
0.2052792 -0.085950248 0.96100003 9196425
0.20361029 -0.081777893 0.96100003 12174496
0.2052792 -0.082612373 0.96100003 11119523
0.20361029 -0.080108985 0.96100003 124537
0.20583551 -0.078996345 0.96100008 12373393
0.20639184 -0.07621479 0.96100008 6663328
0.20861709 -0.07510215 0.96100003 124537
