# .PCD v0.7 - Point Cloud Data file format
VERSION 0.7
FIELDS x y z rgba
SIZE 4 4 4 4
TYPE F F F U
COUNT 1 1 1 1
WIDTH 1112
HEIGHT 1
VIEWPOINT 0 0 0 1 0 0 0
POINTS 1112
DATA ascii
-0.1086968 -0.17857336 0.95800006 10132916
-0.10647853 -0.17968251 0.95800006 9140611
-0.10398292 -0.17968251 0.95800006 9273229
-0.070431106 -0.17912793 0.95800006 1590978
-0.06821277 -0.17885064 0.95800006 9344386
-0.11230156 -0.17635505 0.95800006 7703237
-0.1086968 -0.17580047 0.95800006 5139910
-0.10647853 -0.17552318 0.95800006 10194850
-0.10426021 -0.17524588 0.95800006 4612786
-0.069876537 -0.17552318 0.95800006 3359127
-0.06821277 -0.17552318 0.95800006 4082333
-0.10814224 -0.1721957 0.95800006 1590978
-0.10647853 -0.1721957 0.95800006 5268147
-0.10398293 -0.1721957 0.95800006 4480930
-0.069876537 -0.1721957 0.95800006 2967711
-0.06821277 -0.1721957 0.95800006 2638756
-0.10647853 -0.16886826 0.95800006 5662384
-0.10426021 -0.16859099 0.95800006 3757487
-0.069876537 -0.1680364 0.95800006 4738700
-0.06821277 -0.16886826 0.95800006 3428007
-0.10647853 -0.16637266 0.95800006 9799328
-0.10481477 -0.16637266 0.95800006 8155782
-0.06821277 -0.16637266 0.95800006 5064838
-0.10647853 -0.16387707 0.95800006 9800866
-0.10398293 -0.16387707 0.95800006 1590978
-0.067658208 -0.16359979 0.95800006 2899885
-0.10814224 -0.16054964 0.95800006 1590978
-0.10647853 -0.16138151 0.95800006 9865383
-0.067103639 -0.16027234 0.95800006 3298239
-0.064885363 -0.16138151 0.95800006 5200290
-0.10814224 -0.15639031 0.95800006 1590978
-0.067103639 -0.15749948 0.95800006 6978982
-0.064885363 -0.15722218 0.95800006 9078683
-0.10814224 -0.15389472 0.95800006 7310025
-0.06654907 -0.15389472 0.95800006 4807589
-0.064885363 -0.15389472 0.95800006 9803160
-0.10814224 -0.15139915 0.95800006 13162455
-0.06738092 -0.15139915 0.95800006 1590978
-0.064885363 -0.15139915 0.95800006 9276557
-0.10814224 -0.14890353 0.95800006 1590978
-0.06654907 -0.14890353 0.95800006 1590978
-0.064885363 -0.14890353 0.95800006 7954304
-0.10980593 -0.14557607 0.95800006 14212832
-0.06654907 -0.14640795 0.95800006 1590978
-0.064053483 -0.14557607 0.95800006 5524887
-0.11202427 -0.14252593 0.95800006 6060235
-0.10980593 -0.14141676 0.95800006 1590978
-0.064053483 -0.14224863 0.95800006 4744873
-0.064053483 -0.13892117 0.95800006 5663153
-0.064053483 -0.1364256 0.95800006 5731761
-0.063221604 -0.13393 0.95800006 1590978
-0.1114697 -0.13060255 0.95800006 14604251
-0.10980593 -0.13060255 0.95800006 7967441
-0.063221604 -0.13060255 0.95800006 4208252
-0.061557904 -0.1297707 0.95800006 1590978
-0.1114697 -0.12810695 0.95800006 14538460
-0.10897408 -0.12810695 0.95800006 7967441
-0.063221604 -0.12810695 0.95800006 6242610
-0.061557904 -0.12727511 0.95800006 3818878
-0.059894137 -0.12644325 0.95800006 1590978
-0.10897408 -0.12394762 0.95800006 1590978
-0.063221604 -0.1247795 0.95800006 6766131
-0.061557904 -0.12394762 0.95800006 4014204
-0.059894137 -0.12394762 0.95800006 1590978
-0.11479717 -0.12145206 0.95800006 14605527
-0.11230156 -0.12145206 0.95800006 14538968
-0.10897408 -0.12145206 0.95800006 14474455
-0.061557904 -0.12145206 0.95800006 7028535
-0.059894137 -0.12145206 0.95800006 7094838
-0.11230155 -0.11895645 0.95800006 7177368
-0.10897408 -0.11895645 0.95800006 7441076
-0.063221604 -0.1181246 0.95800006 1590978
-0.061557904 -0.11895645 0.95800006 7423531
-0.059894137 -0.11895645 0.95800006 1590978
-0.11230156 -0.11646085 0.95800006 7487560
-0.10980593 -0.11646085 0.95800006 9136998
-0.063221604 -0.11646085 0.95800006 8146476
-0.061557904 -0.115629 0.95800006 1590978
-0.059894137 -0.115629 0.95800006 4736642
-0.1114697 -0.11313341 0.95800006 5525062
-0.10980593 -0.11313341 0.95800006 5524810
-0.061557904 -0.11230156 0.95800006 5135486
-0.059894137 -0.11230156 0.95800006 5333646
-0.061557904 -0.1089741 0.95800006 4479879
-0.059894137 -0.1089741 0.95800006 3886993
-0.061557904 -0.1064785 0.95800006 1590978
-0.059894137 -0.1064785 0.95800006 8876345
-0.061557904 -0.10481481 0.95800006 1590978
-0.059062287 -0.10398293 0.95800006 1590978
-0.059062287 -0.10065548 0.95800006 3222133
-0.059062287 -0.097328007 0.95800006 3099564
-0.059062287 -0.094000563 0.95800006 3682166
-0.061557904 -0.091504954 0.95800006 1590978
-0.059062287 -0.091504954 0.95800006 3821947
-0.061557904 -0.089009374 0.95800006 5198973
-0.059062287 -0.089009374 0.95800006 1590978
-0.061557904 -0.08568193 0.95800006 3884159
-0.059062287 -0.08568193 0.95800006 3751286
-0.058785003 -0.082631767 0.95800006 3883897
-0.058230434 -0.079858899 0.95800006 10127713
-0.056566734 -0.079027027 0.95800006 9928027
-0.054902967 -0.073203951 0.95800006 1590978
-0.054902967 -0.070708379 0.95800006 5463693
-0.054902967 -0.067380928 0.95800006 5991316
-0.063221604 -0.063221604 0.95800006 1590978
-0.061557904 -0.063221604 0.95800006 5918882
-0.058785003 -0.063776188 0.95800006 3756449
-0.056566734 -0.064053476 0.95800006 6508393
-0.064885363 -0.061557904 0.95800006 1590978
-0.06675747 -0.18024519 0.96100003 9672856
-0.065088555 -0.18024519 0.96100003 9082780
-0.06675747 -0.17857623 0.96100003 1590978
-0.065088555 -0.17857623 0.96100003 9147798
-0.11265323 -0.17523836 0.96100003 7835599
-0.1101498 -0.17523836 0.96100003 12502221
-0.06675747 -0.17607284 0.96100003 1590978
-0.065088555 -0.17607284 0.96100003 1590978
-0.11515666 -0.17273495 0.96100003 14275540
-0.11265323 -0.17273495 0.96100003 4745671
-0.1101498 -0.17273495 0.96100003 12766678
-0.06675747 -0.17273495 0.96100003 2309800
-0.065088555 -0.17273495 0.96100003 1981349
-0.10848089 -0.16939709 0.96100003 6455232
-0.06675747 -0.16939709 0.96100003 3559081
-0.065088555 -0.16939709 0.96100003 3755686
-0.10848089 -0.1660592 0.96100003 6520769
-0.06675747 -0.1660592 0.96100003 3361435
-0.065088555 -0.1660592 0.96100003 3427488
-0.10848089 -0.16355579 0.96100003 11713730
-0.064254068 -0.16355579 0.96100003 2241420
-0.1101498 -0.16188689 0.96100003 13227746
-0.063975908 -0.16077423 0.96100008 3756982
-0.10931534 -0.15771452 0.96100003 13030363
-0.06341958 -0.15771452 0.96100003 5203887
-0.1101498 -0.15437664 0.96100003 13885154
-0.06341958 -0.15437664 0.96100003 5729977
-0.11599112 -0.1502043 0.96100003 14473434
-0.11265323 -0.1502043 0.96100003 8097999
-0.1101498 -0.15103878 0.96100003 13950949
-0.06341958 -0.15103878 0.96100003 5597871
-0.061750669 -0.1502043 0.96100003 1590978
-0.11599112 -0.14853534 0.96100003 14604507
-0.11265323 -0.14853534 0.96100003 8230098
-0.1101498 -0.14853534 0.96100003 14081766
-0.06341958 -0.14853534 0.96100003 1590978
-0.060916182 -0.14853534 0.96100003 10458512
-0.11515666 -0.14603195 0.96100003 1590978
-0.11265323 -0.14603195 0.96100003 8163535
-0.060916182 -0.14603195 0.96100003 3759029
-0.060916182 -0.14269409 0.96100003 7895712
-0.060916182 -0.13935621 0.96100003 7439011
-0.060916182 -0.13601834 0.96100003 6838667
-0.060916182 -0.13351496 0.96100003 4870792
-0.060638022 -0.13128971 0.96100008 3227289
-0.11515666 -0.12683921 0.96100003 14407383
-0.11348768 -0.12683921 0.96100003 14473174
-0.060081694 -0.12850812 0.96100003 5650754
-0.058412783 -0.12767366 0.96100003 4730431
-0.11571296 -0.12461394 0.96100008 14341845
-0.11265323 -0.12433578 0.96100003 1590978
-0.1101498 -0.12350129 0.96100003 14276316
-0.058412783 -0.12433578 0.96100003 3357558
-0.058412783 -0.12099791 0.96100003 4412545
-0.058412783 -0.11849451 0.96100003 1590978
-0.058412783 -0.1159911 0.96100003 1590978
-0.058412783 -0.11265323 0.96100003 1590978
-0.056743871 -0.11181877 0.96100003 1590978
-0.058412783 -0.10931536 0.96100003 3360140
-0.056743871 -0.11014982 0.96100003 6697550
-0.058412783 -0.10681194 0.96100003 8545336
-0.056743871 -0.097632788 0.96100003 7033188
-0.056187551 -0.094573073 0.96100008 3878221
-0.056187551 -0.090678893 0.96100008 5001833
-0.055909388 -0.088453636 0.96100003 5652512
-0.056743871 -0.085950248 0.96100003 5120264
-0.056743871 -0.082612373 0.96100003 3679613
-0.0550749 -0.079274505 0.96100003 5991321
-0.0550749 -0.07593663 0.96100003 5200254
-0.053405989 -0.07510215 0.96100003 1590978
-0.053405989 -0.073433191 0.96100003 8935214
-0.052571502 -0.070929803 0.96100003 1590978
-0.053405989 -0.067591928 0.96100003 10390872
-0.0550749 -0.06508854 0.96100003 7826007
-0.06341958 -0.061750669 0.96100003 10929877
-0.058412783 -0.061750669 0.96100003 10469819
-0.056743871 -0.061750669 0.96100003 10006187
-0.063551567 -0.18062031 0.96300006 9273759
-0.063551567 -0.17811167 0.96300006 1590978
-0.063551567 -0.17560305 0.96300006 1590978
-0.063551567 -0.17309442 0.96300006 2111651
-0.11260895 -0.16947089 0.96300006 5928907
-0.11037904 -0.16974962 0.96300006 7245008
-0.063551567 -0.16974962 0.96300006 3624356
-0.11288768 -0.1664048 0.96300006 8097485
-0.11037904 -0.1664048 0.96300006 1590978
-0.063551567 -0.1664048 0.96300006 3362469
-0.11288768 -0.16305998 0.96300006 8032205
-0.11037904 -0.16389617 0.96300006 13227232
-0.061879184 -0.16389617 0.96300006 2437003
-0.11205149 -0.16055135 0.96300006 14866400
-0.11037904 -0.16055135 0.96300006 13228515
-0.11205149 -0.15804276 0.96300006 1590978
-0.11037904 -0.15887898 0.96300006 13556708
-0.061321702 -0.15776402 0.96300006 3956403
-0.11539632 -0.15553416 0.96300006 1590978
-0.11260895 -0.1549767 0.96300006 10332627
-0.061042961 -0.15469794 0.96300006 5991341
-0.11539632 -0.15218934 0.96300006 14539226
-0.11288768 -0.15218934 0.96300006 8163537
-0.06076422 -0.15163186 0.96300006 7370405
-0.05853435 -0.14717208 0.96300006 10195337
-0.05853435 -0.14549966 0.96300006 9995400
-0.05853435 -0.14299107 0.96300006 9011043
-0.05853435 -0.14048246 0.96300006 6572371
-0.05853435 -0.13212039 0.96300006 1590978
-0.05853435 -0.130448 0.96300006 6307407
-0.056861967 -0.1204135 0.96300006 1590978
-0.056025743 -0.1179049 0.96300006 3163809
-0.056025743 -0.1153963 0.96300006 4014987
-0.055747002 -0.11316641 0.96300006 3623323
-0.055747002 -0.10926414 0.96300006 1590978
-0.053517133 -0.11037906 0.96300006 8613449
-0.056304485 -0.10647678 0.96300006 6313583
-0.056025743 -0.10285322 0.96300006 4338529
-0.056025743 -0.1003446 0.96300006 7363678
-0.05518952 -0.097835973 0.96300006 1590978
-0.053517133 -0.096999787 0.96300006 5515346
-0.05518952 -0.093654975 0.96300006 1590978
-0.053517133 -0.094491169 0.96300006 6242132
-0.05518952 -0.091982536 0.96300006 5782603
-0.052959651 -0.090867624 0.96300006 5260912
-0.05268091 -0.088637725 0.96300006 7820102
-0.05518952 -0.086129121 0.96300006 1590978
-0.053517133 -0.086129121 0.96300006 7217234
-0.05518952 -0.082784303 0.96300006 4736141
-0.052959651 -0.07916075 0.96300006 4546988
-0.05268091 -0.076094665 0.96300006 5265018
-0.051844686 -0.073586017 0.96300006 9467177
-0.050172299 -0.073586017 0.96300006 8612388
-0.050172299 -0.071077421 0.96300006 1590978
-0.051844686 -0.067732602 0.96300006 5857921
-0.050172299 -0.068568818 0.96300006 9204012
-0.05518952 -0.063551567 0.96300006 1590978
-0.053517133 -0.065223999 0.96300006 7959643
-0.061042961 -0.061879184 0.96300006 1590978
-0.062071957 -0.181183 0.96600002 9543075
-0.062071957 -0.17866655 0.96600002 5665204
-0.062071957 -0.1753113 0.96600002 4017314
-0.11491698 -0.17111723 0.96600002 14341333
-0.062071957 -0.17195605 0.96600002 3493028
-0.062071957 -0.16943963 0.96600002 1590978
-0.062071957 -0.1669232 0.96600002 4410505
-0.062071957 -0.16272916 0.96600002 4860300
-0.062071957 -0.16105153 0.96600002 7368081
-0.058716699 -0.15098581 0.96600002 1590978
-0.057877906 -0.14846936 0.96600002 6056102
-0.057039108 -0.14511412 0.96600002 1590978
-0.057039108 -0.14259769 0.96600002 1590978
-0.05536145 -0.14259769 0.96600002 9800214
-0.057598308 -0.13980168 0.96600002 4858465
-0.05536145 -0.1409201 0.96600002 1590978
-0.058157504 -0.13700566 0.96600002 3292561
-0.058716699 -0.13420962 0.96600002 9005139
-0.057039108 -0.12749915 0.96600002 1590978
-0.057039108 -0.12498268 0.96600002 1590978
-0.05536145 -0.12498268 0.96600002 1590978
-0.057039108 -0.12246627 0.96600002 7891786
-0.05536145 -0.12162745 0.96600002 5070223
-0.053683855 -0.12078863 0.96600002 1590978
-0.053124636 -0.11855181 0.96600002 3943034
-0.053683855 -0.11491698 0.96600002 5518671
-0.052845024 -0.11240055 0.96600002 6902046
-0.052565418 -0.10960452 0.96600002 3954599
-0.05536145 -0.10569008 0.96600002 1590978
-0.053683855 -0.10652888 0.96600002 8615791
-0.053683855 -0.10317364 0.96600002 1590978
-0.053683855 -0.1006572 0.96600002 6117437
-0.052565418 -0.098420367 0.96600002 2966683
-0.052006196 -0.094785526 0.96600002 1590978
-0.052006196 -0.092269085 0.96600002 8077385
-0.052006196 -0.087236255 0.96600002 1590978
-0.052006196 -0.085558616 0.96600002 1590978
-0.052845024 -0.083042197 0.96600002 5924510
-0.052006196 -0.080525786 0.96600002 1590978
-0.050328601 -0.079686962 0.96600002 6187917
-0.052006196 -0.077170543 0.96600002 9136688
-0.050328601 -0.07633172 0.96600002 5200503
-0.048651006 -0.072137669 0.96600002 1590978
-0.048651006 -0.070460029 0.96600002 1590978
-0.049489804 -0.067943603 0.96600002 8610354
-0.052845024 -0.064588368 0.96600002 6710649
-0.050328601 -0.065427192 0.96600002 1590978
-0.060394298 -0.060394313 0.96600002 1590978
-0.057877906 -0.060394313 0.96600002 1590978
-0.05536145 -0.062071957 0.96600002 9608386
-0.060581855 -0.18006282 0.96900004 1590978
-0.060581855 -0.17838001 0.96900004 1590978
-0.060581855 -0.17585573 0.96900004 4215972
-0.060581855 -0.17249008 0.96900004 2967463
-0.060581855 -0.16912442 0.96900004 3295652
-0.060581855 -0.16660018 0.96900004 1590978
-0.058899052 -0.16660018 0.96900004 4345224
-0.060581855 -0.16407593 0.96900004 2309031
-0.058338117 -0.16379546 0.96900004 2702766
-0.060581855 -0.16071028 0.96900004 4219049
-0.058057647 -0.16071028 0.96900004 3691173
-0.11527386 -0.15818602 0.96900004 1590978
-0.058057647 -0.15734461 0.96900004 9211284
-0.11527386 -0.15482037 0.96900004 1590978
-0.058057647 -0.15397896 0.96900004 6254499
-0.057216246 -0.1514547 0.96900004 1590978
-0.055533376 -0.1514547 0.96900004 12493442
-0.057216246 -0.14977185 0.96900004 11375749
-0.055533376 -0.14893045 0.96900004 1590978
-0.055533376 -0.14556479 0.96900004 6779297
-0.053289618 -0.14528434 0.96900004 5005993
-0.053009138 -0.14219913 0.96900004 6187125
-0.055533376 -0.13967489 0.96900004 7621398
-0.053009138 -0.13967489 0.96900004 5396858
-0.057216246 -0.13630922 0.96900004 1590978
-0.055533376 -0.13715065 0.96900004 8020035
-0.053009138 -0.13715065 0.96900004 1590978
-0.057216246 -0.13378499 0.96900004 5135244
-0.055533376 -0.13378499 0.96900004 1590978
-0.053009138 -0.13378499 0.96900004 4805000
-0.050484899 -0.13294357 0.96900004 7491404
-0.057216246 -0.13041934 0.96900004 1590978
-0.055533376 -0.13041934 0.96900004 5132166
-0.053009138 -0.13041934 0.96900004 4870275
-0.050484899 -0.12957792 0.96900004 7493438
-0.055533376 -0.12789512 0.96900004 1590978
-0.053009138 -0.12705368 0.96900004 4607354
-0.050484899 -0.12705368 0.96900004 7556902
-0.053009138 -0.1245294 0.96900004 4739451
-0.050484899 -0.1245294 0.96900004 7625753
-0.05272866 -0.12228565 0.96900004 3560103
-0.050484899 -0.12200517 0.96900004 3616877
-0.052167702 -0.11779808 0.96900004 1590978
-0.050484899 -0.11863951 0.96900004 4726821
-0.052167702 -0.11527386 0.96900004 2698121
-0.050484899 -0.11527386 0.96900004 4791865
-0.050484899 -0.1119082 0.96900004 1590978
-0.050484899 -0.10938397 0.96900004 8481906
-0.052167702 -0.10685971 0.96900004 5463958
-0.050484899 -0.10685971 0.96900004 8153437
-0.052167702 -0.10349406 0.96900004 4936326
-0.050484899 -0.10349406 0.96900004 1590978
-0.052167702 -0.1009698 0.96900004 4926273
-0.050484899 -0.10012837 0.96900004 2700420
-0.049643498 -0.097604148 0.96900004 7552086
-0.050484899 -0.095079891 0.96900004 4475541
-0.050484899 -0.091714233 0.96900004 8739919
-0.050484899 -0.088348575 0.96900004 10063219
-0.050484899 -0.084982924 0.96900004 6123428
-0.050484899 -0.082458667 0.96900004 10983032
-0.048802096 -0.079934433 0.96900004 1590978
-0.048802096 -0.076568782 0.96900004 5001324
-0.047119226 -0.075727351 0.96900004 1590978
-0.048802096 -0.074044496 0.96900004 1590978
-0.047119226 -0.073203102 0.96900004 8466218
-0.047119226 -0.070678845 0.96900004 9066025
-0.048802096 -0.067313179 0.96900004 1590978
-0.047119226 -0.068154603 0.96900004 4736873
-0.052167702 -0.063947529 0.96900004 1590978
-0.049643498 -0.064788952 0.96900004 4212600
-0.047119226 -0.065630384 0.96900004 1590978
-0.055533376 -0.060581874 0.96900004 1590978
-0.053850573 -0.062264726 0.96900004 1590978
-0.058237396 -0.18062028 0.97200006 10918825
-0.055819929 -0.18099192 0.97400004 11443114
-0.058237396 -0.17808825 0.97200006 1590978
-0.055819929 -0.17845467 0.97400004 9541248
-0.058296442 -0.17573676 0.97300005 3094674
-0.058237392 -0.17302409 0.97200006 2311600
-0.055819929 -0.17253435 0.97400004 4081533
-0.058237396 -0.16964802 0.97200006 3296163
-0.054974183 -0.1699971 0.97400004 3231139
-0.052436888 -0.16915134 0.97400004 5788801
-0.057393387 -0.16627194 0.97200006 1590978
-0.054889087 -0.1663579 0.97250009 3361699
-0.052436888 -0.16661407 0.97400004 5461371
-0.050745402 -0.16576831 0.97400004 1590978
-0.12407095 -0.16205184 0.97200006 14473431
-0.12081816 -0.16221856 0.97300005 14473433
-0.1181628 -0.16205184 0.97200006 14473434
-0.1159121 -0.16261452 0.97200006 5863370
-0.0548613 -0.16289586 0.97200006 3751817
-0.052329216 -0.16289586 0.97200006 3815289
-0.050745402 -0.16323105 0.97400004 2834846
-0.12153889 -0.16036382 0.97200006 14539226
-0.11900681 -0.16036382 0.97200006 8097998
-0.11575058 -0.16052881 0.97300005 8032207
-0.0548613 -0.16036382 0.97200006 6911880
-0.05238305 -0.15968303 0.97300005 8354189
-0.050745402 -0.15984802 0.97400004 3823273
-0.11900681 -0.15867576 0.97200006 8163533
-0.0548613 -0.15783176 0.97200006 5727907
-0.052436888 -0.15731077 0.97400004 9932180
-0.050745402 -0.15731077 0.97400004 8881306
-0.0548613 -0.15445568 0.97200006 5795489
-0.052436888 -0.15477347 0.97400004 10458756
-0.050745402 -0.15477347 0.97400004 1590978
-0.054017294 -0.15107958 0.97200006 6976929
-0.05238305 -0.15123588 0.97300005 6976675
-0.050745402 -0.15139043 0.97400004 5860262
-0.054017294 -0.14854753 0.97200006 1590978
-0.052329216 -0.14854753 0.97200006 12032898
-0.050181575 -0.14772551 0.9740001 4547244
-0.052329216 -0.14685945 0.97200006 1590978
-0.049847558 -0.1453208 0.97300005 1590978
-0.049847558 -0.14278613 0.97300005 6253462
-0.049797196 -0.1392633 0.97200006 7760487
-0.047362361 -0.13954985 0.97400004 9731426
-0.049822375 -0.1359567 0.97250009 6575472
-0.047362361 -0.13616684 0.97400004 8348239
-0.048953187 -0.13335516 0.97200006 7031086
-0.04651662 -0.13362956 0.97400004 7819037
-0.049515858 -0.13110445 0.97200006 3492760
-0.046492301 -0.13102542 0.97350001 1590978
-0.048953187 -0.12744704 0.97200006 4542332
-0.04646799 -0.12757815 0.97300005 4477826
-0.048953187 -0.12407093 0.97200006 4475511
-0.04646799 -0.12419857 0.97300005 2833791
-0.048953187 -0.12153886 0.97200006 1590978
-0.046202287 -0.12114175 0.97333336 4473698
-0.048953187 -0.11900682 0.97200006 3687795
-0.0467337 -0.11880653 0.97266674 2966164
-0.048953187 -0.11563075 0.97200006 3553922
-0.046798535 -0.11558674 0.9740001 2965399
-0.048953187 -0.11225466 0.97200006 4280431
-0.04646799 -0.11237016 0.97300005 4145525
-0.048953187 -0.10887858 0.97200006 4675984
-0.04646799 -0.10899059 0.97300005 4410752
-0.048953187 -0.10634654 0.97200006 1590978
-0.046421103 -0.10634654 0.97200006 6505804
-0.048953187 -0.10381448 0.97200006 4542848
-0.046421103 -0.10381448 0.97200006 1590978
-0.048953187 -0.10043837 0.97200006 2176383
-0.046421103 -0.10043837 0.97200006 1975163
-0.048953187 -0.096218266 0.97200006 1590978
-0.04646799 -0.09716215 0.97300005 7367784
-0.048953187 -0.094530247 0.97200006 1590978
-0.046202283 -0.094096079 0.97333336 4940453
-0.048953187 -0.091998182 0.97200006 5262986
-0.0467337 -0.091779374 0.97266674 4481186
-0.048953187 -0.088622108 0.97200006 6124956
-0.04646799 -0.088713273 0.97300005 6320544
-0.048953187 -0.085246027 0.97200006 6451613
-0.046492308 -0.085377142 0.97350007 8750466
-0.048953187 -0.082713954 0.97200006 10983281
-0.04646799 -0.081954181 0.97300005 3955369
-0.04646799 -0.079419501 0.97300005 5790326
-0.043979324 -0.079501122 0.97400004 10522197
-0.046139769 -0.077087186 0.97200006 3945857
-0.043979324 -0.076963864 0.97400004 5794434
-0.045577094 -0.073429734 0.97200006 5199218
-0.043889016 -0.073429734 0.97200006 5660021
-0.045577094 -0.070053652 0.97200006 5395828
-0.043889016 -0.070053652 0.97200006 9595427
-0.045577094 -0.067521587 0.97200006 1590978
-0.043889016 -0.067521587 0.97200006 9196839
-0.048953187 -0.064145513 0.97200006 1590978
-0.046421103 -0.064989537 0.97200006 6897983
-0.043979324 -0.065969028 0.97400004 8215338
-0.054017294 -0.060769431 0.97200006 1590978
-0.05238305 -0.061675984 0.97300005 7309507
-0.05429516 -0.17900433 0.97700006 1590978
-0.055426292 -0.17532808 0.97700012 3881869
-0.05429516 -0.17306575 0.97700006 1590978
-0.052598398 -0.17221741 0.97700006 2113951
-0.0509017 -0.17136908 0.97700006 1590978
-0.0509017 -0.16967233 0.97700006 5133693
-0.0509017 -0.16797562 0.97700006 1590978
-0.049205005 -0.16373381 0.97700006 2769569
-0.049205005 -0.16034037 0.97700006 3494817
-0.049205005 -0.15694693 0.97700006 4675997
-0.049205005 -0.15440185 0.97700006 1590978
-0.049205005 -0.15185672 0.97700006 4807064
-0.049205005 -0.14931166 0.97700006 1590978
-0.047508243 -0.14761493 0.97700006 8811112
-0.047508243 -0.14506984 0.97700006 9338214
-0.047508243 -0.14252478 0.97700006 9074532
-0.045811545 -0.13743457 0.97700006 9070926
-0.045811545 -0.11707392 0.97700006 6105890
-0.044114783 -0.10604522 0.97700006 6563630
-0.044114783 -0.10350015 0.97700006 5112345
-0.044114783 -0.10095502 0.97700006 5647696
-0.044114783 -0.09756159 0.97700006 10654083
-0.044114783 -0.094168141 0.97700006 11378824
-0.044114783 -0.091623075 0.97700006 11312512
-0.044114783 -0.089077979 0.97700006 11180664
-0.044114783 -0.08568453 0.97700006 11114860
-0.044114783 -0.082291096 0.97700006 6320269
-0.042418085 -0.078897648 0.97700006 6253708
-0.042418085 -0.076352552 0.97700006 1590978
-0.042418085 -0.073807456 0.97700006 6120317
-0.042418085 -0.070414007 0.97700006 5856630
-0.042418085 -0.067020573 0.97700006 5921139
-0.045811545 -0.064475477 0.97700006 1590978
-0.050336134 -0.062213197 0.97700012 6577361
-0.046942677 -0.062213197 0.97700012 7565246
-0.051908955 -0.18040496 0.98000002 10917018
-0.049356092 -0.18040496 0.98000002 11513255
-0.054461882 -0.17700104 0.98000002 6708869
-0.051908955 -0.17785203 0.98000002 5137318
-0.051908955 -0.17529914 0.98000002 5584753
-0.051058002 -0.17359719 0.98000002 1590978
-0.049356092 -0.17189527 0.98000002 1590978
-0.049356092 -0.16934237 0.98000002 1590978
-0.049356092 -0.16678946 0.98000002 1590978
-0.047654118 -0.1633856 0.98000002 1590978
-0.047654118 -0.16168369 0.98000002 4936304
-0.047654118 -0.15742885 0.98000002 6706514
-0.047654118 -0.15402497 0.98000002 4213378
-0.047654118 -0.15147205 0.98000002 7559271
-0.046803169 -0.14891917 0.98000002 4871572
-0.045952216 -0.14551531 0.98000002 1590978
-0.045952216 -0.14211144 0.98000002 4412296
-0.044250242 -0.14126046 0.98000002 1590978
-0.045952216 -0.13955855 0.98000002 1590978
-0.044250242 -0.13955855 0.98000002 8415292
-0.045952216 -0.13615468 0.98000002 1590978
-0.044250242 -0.13700563 0.98000002 1590978
-0.043682944 -0.13331813 0.98000002 3623319
-0.043682944 -0.13048157 0.98000002 6381686
-0.044250242 -0.127645 0.98000002 7093562
-0.043399289 -0.12509209 0.98000002 3618426
-0.043399289 -0.12168823 0.98000002 5259610
-0.043399289 -0.11828437 0.98000002 4929603
-0.043399289 -0.1148805 0.98000002 5058645
-0.043399289 -0.1123276 0.98000002 6764339
-0.043399289 -0.10977471 0.98000002 4540274
-0.040846426 -0.10892373 0.98000002 1590978
-0.042548336 -0.10637084 0.98000002 4606587
-0.040846426 -0.10637084 0.98000002 8803640
-0.042548336 -0.10296698 0.98000002 3941238
-0.040846426 -0.10296698 0.98000002 8612440
-0.042548336 -0.10041405 0.98000002 8544901
-0.040846426 -0.10041405 0.98000002 10129320
-0.042548336 -0.097861156 0.98000002 1590978
-0.040846426 -0.097861156 0.98000002 11446425
-0.042548336 -0.094457299 0.98000002 1590978
-0.040846426 -0.094457299 0.98000002 11182731
-0.042548336 -0.091053441 0.98000002 1590978
-0.040846426 -0.091904417 0.98000002 11117191
-0.042548336 -0.088500544 0.98000002 1590978
-0.040846426 -0.088500544 0.98000002 11182464
-0.042548336 -0.08594764 0.98000002 6385820
-0.040846426 -0.08594764 0.98000002 6451611
-0.042548336 -0.082543775 0.98000002 6320274
-0.040846426 -0.082543775 0.98000002 6386072
-0.039995439 -0.079139911 0.98000002 6254226
-0.039995439 -0.076586999 0.98000002 6121101
-0.039995439 -0.074034095 0.98000002 1590978
-0.039995439 -0.07063023 0.98000002 8154200
-0.03744255 -0.071481183 0.98000002 10519387
-0.039995439 -0.067226365 0.98000002 7891023
-0.044250242 -0.064673461 0.98000002 7221870
-0.049356092 -0.061269592 0.98000002 1590978
-0.045952216 -0.061269592 0.98000002 1590978
-0.049507186 -0.17839646 0.98300004 10590874
-0.047800001 -0.17754288 0.98300004 1590978
-0.049507186 -0.17498219 0.98300004 4601726
-0.047800001 -0.17412861 0.98300004 1590978
-0.047800001 -0.17242149 0.98300004 1590978
-0.047800001 -0.16986077 0.98300004 2901156
-0.047800001 -0.16644648 0.98300004 2966947
-0.047800001 -0.16047147 0.98300004 1590978
-0.046092886 -0.15791076 0.98300004 1590978
-0.046092886 -0.15449649 0.98300004 1590978
-0.046092886 -0.15108219 0.98300004 4082317
-0.044385701 -0.15193574 0.98300004 7359562
-0.044385701 -0.14852147 0.98300004 7360563
-0.043532141 -0.14596075 0.98300004 2966174
-0.043247622 -0.142831 0.98300004 5194855
-0.040971469 -0.14169289 0.98300004 7031102
-0.042678583 -0.13913219 0.98300004 1590978
-0.040971469 -0.13913219 0.98300004 4343925
-0.042678583 -0.1365715 0.98300004 1590978
-0.040971469 -0.1365715 0.98300004 7223084
-0.042678583 -0.13486433 0.98300004 7295300
-0.040971469 -0.13401076 0.98300004 1590978
-0.042678583 -0.12974292 0.98300004 1590978
-0.040402409 -0.130881 0.98300004 7628105
-0.042678583 -0.12803575 0.98300004 8940123
-0.040402409 -0.12689765 0.98300004 3822506
-0.040117875 -0.12462147 0.98300004 7556952
-0.040402409 -0.12234527 0.98300004 5325410
-0.040117875 -0.11864646 0.98300004 6904163
-0.040117875 -0.11523218 0.98300004 7103062
-0.040117875 -0.11267145 0.98300004 9530949
-0.039833345 -0.11039528 0.98300004 1590978
-0.039264284 -0.10669647 0.98300004 5986959
-0.039264284 -0.10328218 0.98300004 6255506
-0.039264284 -0.09986788 0.98300004 1590978
-0.03755717 -0.099014319 0.98300004 1590978
-0.039264284 -0.097307153 0.98300004 1590978
-0.039264284 -0.094746456 0.98300004 6518187
-0.03755717 -0.093892872 0.98300004 10324884
-0.039833345 -0.091047645 0.98300004 4744369
-0.03755717 -0.092185751 0.98300004 10520218
-0.039264284 -0.087917879 0.98300004 6321322
-0.03755717 -0.087064303 0.98300004 10986152
-0.039264284 -0.085357182 0.98300004 11509895
-0.03755717 -0.085357182 0.98300004 11248537
-0.039264284 -0.082796469 0.98300004 1590978
-0.03755717 -0.082796469 0.98300004 1590978
-0.03755717 -0.079382181 0.98300004 10852216
-0.035849985 -0.07852862 0.98300004 1590978
-0.03755717 -0.075967871 0.98300004 6122393
-0.035849985 -0.075967871 0.98300004 6188443
-0.03755717 -0.073407166 0.98300004 1590978
-0.035849985 -0.073407166 0.98300004 10719593
-0.03755717 -0.069992885 0.98300004 1590978
-0.035849985 -0.070846438 0.98300004 1590978
-0.03755717 -0.067432165 0.98300004 10190158
-0.035280947 -0.067716688 0.98300004 4611490
-0.043532141 -0.064017877 0.98300004 5259194
-0.040117875 -0.06487143 0.98300004 5132436
-0.03755717 -0.06487143 0.98300004 8873072
-0.044385701 -0.061457153 0.98300004 1590978
-0.0512143 -0.059750032 0.98300004 12894643
-0.049507186 -0.059750032 0.98300004 1590978
-0.046946444 -0.059750032 0.98300004 13158323
-0.046756864 -0.17904454 0.98500007 5205436
-0.04675686 -0.17562333 0.98500007 3559596
-0.046186663 -0.17191698 0.98500007 2506146
-0.046186663 -0.16935107 0.98500007 1590978
-0.046186663 -0.16678512 0.98500007 2703778
-0.046186663 -0.1633639 0.98500007 2310559
-0.044476006 -0.1633639 0.98500007 2441888
-0.046186663 -0.16079797 0.98500007 5782622
-0.044476006 -0.15994267 0.98500007 5521479
-0.044476006 -0.15737674 0.98500007 6370624
-0.04390581 -0.15452573 0.98500007 3294618
-0.043335613 -0.15110448 0.98500007 3754136
-0.042765416 -0.14882363 0.98500007 7358519
-0.041054826 -0.14796834 0.98500007 7031099
-0.041054826 -0.14540242 0.98500007 6900024
-0.0401995 -0.1428365 0.98500007 4212606
-0.039344173 -0.13941526 0.98500007 4409982
-0.039344173 -0.13599403 0.98500007 5000064
-0.039344173 -0.13342813 0.98500007 1590978
-0.039344173 -0.13000689 0.98500007 1590978
-0.039344173 -0.12829626 0.98500007 7762537
-0.037633579 -0.12658562 0.98500007 1590978
-0.037633579 -0.1240197 0.98500007 8219221
-0.039344173 -0.12145379 0.98500007 1590978
-0.037633579 -0.12145379 0.98500007 9665635
-0.037633579 -0.11888786 0.98500007 11047278
-0.037633579 -0.11546662 0.98500007 11115381
-0.037633579 -0.1120454 0.98500007 11183206
-0.037633579 -0.10947946 0.98500007 10786162
-0.035922926 -0.10947946 0.98500007 11114609
-0.037633579 -0.10691355 0.98500007 5861283
-0.037633579 -0.10349233 0.98500007 10855056
-0.037633579 -0.10092637 0.98500007 11314856
-0.035922926 -0.099215768 0.98500007 1590978
-0.037633579 -0.09750513 0.98500007 10722467
-0.035922926 -0.09750513 0.98500007 9725020
-0.037633579 -0.095794544 0.98500007 1590978
-0.035922926 -0.094939224 0.98500007 1590978
-0.037633579 -0.090662673 0.98500007 10587553
-0.035922926 -0.091517992 0.98500007 1590978
-0.037633579 -0.088952087 0.98500007 10654884
-0.035922926 -0.088096768 0.98500007 5924260
-0.035922926 -0.085530847 0.98500007 11051668
-0.035922926 -0.082964912 0.98500007 1590978
-0.035067633 -0.079543687 0.98500007 6321064
-0.034212336 -0.076122433 0.98500007 6255261
-0.034212336 -0.07355652 0.98500007 1590978
-0.032501746 -0.07355652 0.98500007 10652782
-0.034212336 -0.070990592 0.98500007 1590978
-0.032501746 -0.070990592 0.98500007 6057371
-0.034212336 -0.066714063 0.98500007 1590978
-0.032501746 -0.06756936 0.98500007 5925526
-0.042765416 -0.063292831 0.98500007 1590978
-0.041054826 -0.063292831 0.98500007 1590978
-0.037633579 -0.063292831 0.98500007 8596627
-0.035067633 -0.065003417 0.98500007 5594780
-0.044611469 -0.18016182 0.98800004 12631476
-0.044611469 -0.17844597 0.98800004 1590978
-0.043753568 -0.17587224 0.98800004 3232687
-0.044611469 -0.17244059 0.98800004 2636446
-0.044611469 -0.16900894 0.98800004 2507169
-0.043753568 -0.1664352 0.98800004 2441119
-0.042895667 -0.16386145 0.98800004 1590978
-0.042895667 -0.16042981 0.98800004 3164048
-0.042895667 -0.15699816 0.98800004 4343169
-0.041179869 -0.1544244 0.98800004 1590978
-0.041179869 -0.15185066 0.98800004 4475522
-0.039464004 -0.14841901 0.98800004 4278401
-0.039464004 -0.14498734 0.98800004 4211327
-0.037748203 -0.14498734 0.98800004 4080258
-0.037748203 -0.14241362 0.98800004 6699075
-0.037748203 -0.14069781 0.98800004 1590978
-0.037748203 -0.13640822 0.98800004 5199242
-0.037176248 -0.13269061 0.98800009 3031198
-0.037748203 -0.13040285 0.98800004 1590978
-0.036890268 -0.12782907 0.98800004 4741772
-0.036032334 -0.1235395 0.98800004 1590978
-0.036032334 -0.12096578 0.98800004 6188190
-0.036032334 -0.11839205 0.98800004 1590978
-0.036032334 -0.11581831 0.98800004 6781092
-0.036032334 -0.11238665 0.98800004 1590978
-0.036032334 -0.10809711 0.98800004 1590978
-0.034316532 -0.108955 0.98800004 6058393
-0.036032334 -0.10638125 0.98800004 1590978
-0.034316532 -0.10638125 0.98800004 8871281
-0.036032334 -0.10380753 0.98800004 5729448
-0.034316532 -0.10380753 0.98800004 1590978
-0.036032334 -0.10123375 0.98800004 10991778
-0.034316532 -0.10037585 0.98800004 6388143
-0.034316532 -0.096944198 0.98800004 5987180
-0.034316532 -0.094370447 0.98800004 1590978
-0.034316532 -0.091796726 0.98800004 5982868
-0.034316532 -0.089223005 0.98800004 10244971
-0.034316532 -0.08493343 0.98800004 6190504
-0.034316532 -0.082359701 0.98800004 1590978
-0.034316532 -0.080643855 0.98800004 11051171
-0.032600731 -0.079785958 0.98800004 1590978
-0.032028779 -0.076068297 0.98800009 7832721
-0.030884868 -0.072922625 0.98800004 5529239
-0.030884868 -0.070348904 0.98800004 1590978
-0.030884868 -0.067775153 0.98800004 1590978
-0.039464004 -0.0634856 0.98800004 1590978
-0.036032334 -0.0634856 0.98800004 1590978
-0.032600731 -0.065201402 0.98800004 1590978
-0.043753568 -0.060911849 0.98800004 1590978
-0.039464004 -0.06176975 0.98800004 1590978
-0.043025918 -0.18070886 0.99100006 12828086
-0.041304909 -0.18070886 0.99100006 12828089
-0.043025918 -0.1789878 0.99100006 1590978
-0.040731214 -0.17784046 0.99100006 1590978
-0.040444367 -0.17554572 0.99100006 6769250
-0.043025918 -0.17296419 0.99100006 2767006
-0.040444367 -0.17296419 0.99100006 2310063
-0.043025918 -0.16952211 0.99100006 2310305
-0.040731218 -0.16923527 0.99100006 2637205
-0.04044437 -0.16608004 0.99100006 2506395
-0.037862822 -0.16608004 0.99100006 5722988
-0.040444367 -0.16349849 0.99100006 2704542
-0.037862822 -0.16349849 0.99100006 5262200
-0.040444367 -0.16091694 0.99100006 2311850
-0.040444367 -0.15747488 0.99100006 4344452
-0.039583828 -0.15403278 0.99100006 4016260
-0.037862822 -0.15317225 0.99100006 1590978
-0.039583828 -0.15145124 0.99100006 1590978
-0.037862822 -0.15145124 0.99100006 5850698
-0.037002284 -0.14886966 0.99100006 1590978
-0.034420736 -0.14800917 0.99100006 6505531
-0.036141746 -0.14542761 0.99100006 4014976
-0.034420736 -0.14542761 0.99100006 4211583
-0.036141746 -0.14198554 0.99100006 3948679
-0.034420736 -0.14198554 0.99100006 6961745
-0.037002284 -0.13940397 0.99100006 1590978
-0.036141746 -0.13682243 0.99100006 1590978
-0.036141746 -0.13424088 0.99100006 1590978
-0.034420736 -0.13251983 0.99100006 1590978
-0.036141746 -0.12993827 0.99100006 5001870
-0.034420736 -0.12993827 0.99100006 6707563
-0.032699723 -0.12907775 0.99100006 1590978
-0.034420736 -0.12735669 0.99100006 5523317
-0.032699723 -0.12735669 0.99100006 3025503
-0.036141746 -0.12563568 0.99100006 1590978
-0.034420736 -0.12477516 0.99100006 4478105
-0.032699723 -0.12477516 0.99100006 1590978
-0.034420736 -0.12133309 0.99100006 5728681
-0.032699723 -0.12133309 0.99100006 1590978
-0.034420736 -0.11789101 0.99100006 6388911
-0.032699723 -0.11789101 0.99100006 5993391
-0.034420736 -0.11530948 0.99100006 1590978
-0.034420736 -0.11272791 0.99100006 6781612
-0.032699723 -0.11272791 0.99100006 1590978
-0.032699723 -0.10928584 0.99100006 5793683
-0.032699723 -0.10670427 0.99100006 9199204
-0.032699723 -0.10412273 0.99100006 1590978
-0.032699723 -0.10068063 0.99100006 6583213
-0.032699723 -0.09723857 0.99100006 6382224
-0.032699723 -0.094657004 0.99100006 1590978
-0.032699723 -0.092075467 0.99100006 1590978
-0.034420736 -0.087772861 0.99100006 1590978
-0.032699723 -0.088633388 0.99100006 5918363
-0.032699723 -0.085191324 0.99100006 6121635
-0.031839184 -0.08260978 0.99100006 10454413
-0.030978648 -0.080028221 0.99100006 1590978
-0.029257637 -0.079167716 0.99100006 1590978
-0.030978648 -0.077446654 0.99100006 10125698
-0.029257637 -0.076586127 0.99100006 5396639
-0.0283971 -0.073144048 0.99100006 5002907
-0.028397098 -0.070562512 0.99100006 9141887
-0.0283971 -0.067980945 0.99100006 6057123
-0.034420736 -0.063678369 0.99100006 1590978
-0.031839184 -0.064538874 0.99100006 9330823
-0.029257637 -0.065399379 0.99100006 10520708
-0.043025918 -0.060236301 0.99100006 1590978
-0.041304909 -0.061957311 0.99100006 1590978
-0.037002284 -0.061957311 0.99100006 4940727
-0.03970366 -0.17952964 0.99400002 1590978
-0.037402015 -0.17895424 0.99400008 9147824
-0.037402015 -0.17550175 0.99400008 6775445
-0.037977442 -0.17262466 0.99400002 2434166
-0.03970366 -0.17089844 0.99400002 3160705
-0.037977442 -0.1700353 0.99400002 3555194
-0.036251154 -0.16658281 0.99400002 4153505
-0.036826588 -0.16284262 0.99400008 4213127
-0.0371143 -0.16054097 0.99400002 5327712
-0.0371143 -0.15795158 0.99400002 2836903
-0.036826584 -0.1547868 0.99400008 4408435
-0.036251154 -0.15190972 0.99400002 4536637
-0.034524936 -0.15104659 0.99400002 3555705
-0.032798715 -0.14586784 0.99400002 1590978
-0.032798715 -0.14241534 0.99400002 1590978
-0.034524936 -0.13896286 0.99400002 8020807
-0.032798715 -0.13982598 0.99400002 7757901
-0.034524936 -0.13637348 0.99400002 7424342
-0.032798715 -0.13637348 0.99400002 7094594
-0.034524936 -0.13464727 0.99400002 6504010
-0.032798715 -0.132921 0.99400002 1590978
-0.031935573 -0.13033164 0.99400002 1590978
-0.031072427 -0.12601601 0.99400002 1590978
-0.031935573 -0.11565854 0.99400002 11381914
-0.031072427 -0.11306916 0.99400002 1590978
-0.031072427 -0.10961667 0.99400002 6053516
-0.031072427 -0.10616419 0.99400002 4739981
-0.02877078 -0.10587649 0.99400008 3231387
-0.031072427 -0.1035748 0.99400002 1590978
-0.028483065 -0.1035748 0.99400002 8139598
-0.031072427 -0.10098542 0.99400002 5664427
-0.029346207 -0.10098542 0.99400002 1590978
-0.031072427 -0.097532935 0.99400002 5856692
-0.029346207 -0.097532935 0.99400002 5331110
-0.031072427 -0.094080448 0.99400002 6126002
-0.029346207 -0.094080448 0.99400002 5786786
-0.031072427 -0.091491066 0.99400002 1590978
-0.029346207 -0.091491066 0.99400002 10377596
-0.031072427 -0.088901706 0.99400002 5984416
-0.029346207 -0.088901706 0.99400002 1590978
-0.031072427 -0.085449219 0.99400002 6316702
-0.02877078 -0.085161507 0.99400008 4807856
-0.028483065 -0.081996731 0.99400002 7890313
-0.025893701 -0.081996724 0.99400002 10053732
-0.027619923 -0.079407372 0.99400002 1590978
-0.025893701 -0.079407372 0.99400002 9790563
-0.027619923 -0.076817967 0.99400002 5462428
-0.025318295 -0.076530263 0.99400008 1590978
-0.025030591 -0.07336548 0.99400002 6908271
-0.025030591 -0.069912985 0.99400002 7630986
-0.025030591 -0.067323633 0.99400002 10592144
-0.031072427 -0.063871145 0.99400002 1590978
-0.028483065 -0.06473425 0.99400002 6187940
-0.025893701 -0.065597363 0.99400002 1590978
-0.03970366 -0.060418651 0.99400002 1590978
-0.034524936 -0.062144876 0.99400002 1590978
-0.046608675 -0.058692381 0.99400002 1590978
-0.044019278 -0.058692381 0.99400002 8028321
-0.036360562 -0.17834005 0.99700004 1590978
-0.036360562 -0.17487712 0.99700004 1590978
-0.034629133 -0.16362266 0.99700004 5786723
-0.034629133 -0.16015975 0.99700004 5524070
-0.034629133 -0.15756258 0.99700004 6309710
-0.034629133 -0.15496537 0.99700004 4146046
-0.032897703 -0.15063672 0.99700004 1590978
-0.031743374 -0.14832813 0.9970001 3294102
-0.031166207 -0.14544238 0.99700004 1590978
-0.029434778 -0.14544238 0.99700004 8604715
-0.031166207 -0.14284518 0.99700004 1590978
-0.031743374 -0.1390937 0.9970001 3886751
-0.031743374 -0.13563079 0.9970001 3622801
-0.031166207 -0.13332216 0.99700004 6629455
-0.031166207 -0.13159074 0.99700004 1590978
-0.029434778 -0.130725 0.99700004 1590978
-0.031166207 -0.12812777 0.99700004 1590978
-0.029434778 -0.12726206 0.99700004 3618434
-0.031166207 -0.12466487 0.99700004 1590978
-0.029434778 -0.12466487 0.99700004 1590978
-0.031166207 -0.12206769 0.99700004 5264529
-0.029434778 -0.12293343 0.99700004 1590978
-0.031166207 -0.11860479 0.99700004 5465520
-0.029434778 -0.11773904 0.99700004 1590978
-0.02856903 -0.11514188 0.99700004 3495092
-0.02856903 -0.11254471 0.99700004 6256822
-0.028569032 -0.1099475 0.99700004 3954863
-0.027703281 -0.10735032 0.99700004 1590978
-0.02597185 -0.10648461 0.99700004 5991568
-0.027703281 -0.10215592 0.99700004 1590978
-0.02597185 -0.10302167 0.99700004 10192222
-0.027703281 -0.1004245 0.99700004 1590978
-0.027703281 -0.0978273 0.99700004 5519256
-0.02597185 -0.0978273 0.99700004 1590978
-0.027703281 -0.09436439 0.99700004 5848977
-0.027703281 -0.090901479 0.99700004 6119328
-0.02597185 -0.090035766 0.99700004 1590978
-0.027703281 -0.088304281 0.99700004 1590978
-0.02597185 -0.088304281 0.99700004 11183282
-0.027703281 -0.086572848 0.99700004 11250082
-0.02597185 -0.085707113 0.99700004 10849165
-0.024240421 -0.082244202 0.99700004 5920151
-0.022508923 -0.08137846 0.99700004 1590978
-0.024240421 -0.079647027 0.99700004 10250081
-0.022508923 -0.079647027 0.99700004 10719360
-0.024240421 -0.077915557 0.99700004 1590978
-0.022508923 -0.077049814 0.99700004 1590978
-0.022508923 -0.073586896 0.99700004 9931630
-0.022508923 -0.070123993 0.99700004 9996919
-0.022508923 -0.067526817 0.99700004 10592914
-0.027703281 -0.064063914 0.99700004 1590978
-0.025106136 -0.064929634 0.99700004 4870816
-0.022508923 -0.065795347 0.99700004 11182724
-0.041554987 -0.060601 0.99700004 11851430
-0.037226312 -0.060601 0.99700004 1590978
-0.032031953 -0.062332433 0.99700004 1590978
-0.029434778 -0.062332433 0.99700004 1590978
-0.039823491 -0.058869522 0.99700004 1590978
-0.037226312 -0.058869522 0.99700004 7962801
-0.034733336 -0.18061332 1 12761767
-0.034733336 -0.17800833 1 1590978
-0.032996695 -0.17714 1 1590978
-0.034733336 -0.17540334 1 1590978
-0.036469977 -0.17279834 1 1913753
-0.034733336 -0.17279834 1 1978774
-0.036469977 -0.17019331 1 1590978
-0.034733336 -0.16932499 1 2772645
-0.034733336 -0.16671999 1 1590978
-0.032996695 -0.16671999 1 10130044
-0.032996695 -0.16411501 1 1590978
-0.032996695 -0.16064167 1 1590978
-0.032417797 -0.15687892 1 3295386
-0.032128341 -0.15456332 1 4540024
-0.03183889 -0.15224777 1 3294610
-0.028944446 -0.14819556 1 5326439
-0.028654994 -0.14501166 1 5395567
-0.029523347 -0.14240669 1 9921094
-0.028944446 -0.13951224 1 4017311
-0.028654994 -0.13632834 1 6443628
-0.028654994 -0.13372333 1 4740233
-0.027786642 -0.13111836 1 1590978
-0.026050001 -0.13025001 1 1590978
-0.027786642 -0.12764499 1 3818110
-0.027786642 -0.12417166 1 4937363
-0.026050001 -0.12417166 1 1590978
-0.028654994 -0.12156665 1 1590978
-0.026050001 -0.12156665 1 1590978
-0.028365543 -0.11925112 1 3821993
-0.026050001 -0.11809332 1 1590978
-0.026050001 -0.11548834 1 9075340
-0.026050001 -0.11201501 1 11447194
-0.025181681 -0.10941003 1 10720630
-0.02431336 -0.10680501 1 1590978
-0.02431336 -0.10333166 1 4944026
-0.025181681 -0.10072667 1 5137045
-0.02431336 -0.098121658 1 1590978
-0.022576654 -0.098121658 1 5000601
-0.025181681 -0.094648331 1 8089728
-0.022576654 -0.095516652 1 9592432
-0.024892241 -0.091464445 1 4478888
-0.02431336 -0.088569999 1 10520745
-0.02431336 -0.085965008 1 1590978
-0.022576654 -0.085096657 1 1590978
-0.022576654 -0.083360016 1 10389629
-0.020840015 -0.081623331 1 1590978
-0.020840015 -0.078150004 1 1590978
-0.020840015 -0.076413311 1 1590978
-0.020840015 -0.073808327 1 1590978
-0.020840015 -0.070335001 1 5729432
-0.020840015 -0.067730017 1 10593173
-0.02431336 -0.064256676 1 1590978
-0.022576654 -0.064256676 1 8160631
-0.020840015 -0.065993316 1 1590978
-0.034733336 -0.060783353 1 1590978
-0.032996695 -0.060783353 1 1590978
-0.027786642 -0.06251999 1 1590978
-0.026050001 -0.06251999 1 5457811
-0.041680031 -0.05904666 1 1590978
-0.033095684 -0.1794133 1.003 1590978
-0.031353768 -0.17854236 1.003 6717356
-0.029611917 -0.17767142 1.003 1590978
-0.033095684 -0.1750586 1.003 4214932
-0.031353768 -0.1750586 1.003 5196653
-0.029611917 -0.17592956 1.003 7698293
-0.033095684 -0.1724458 1.003 3222129
-0.033095684 -0.16983299 1.003 1590978
-0.031353768 -0.16896206 1.003 1590978
-0.031353768 -0.16634923 1.003 5532831
-0.031353768 -0.16373642 1.003 1590978
-0.031353768 -0.1611236 1.003 3622548
-0.029611917 -0.1611236 1.003 1590978
-0.031353768 -0.1585108 1.003 6901066
-0.029611917 -0.15763986 1.003 4279943
-0.028740957 -0.15415607 1.003 4737402
-0.028740957 -0.15154324 1.003 7094591
-0.027869999 -0.1498014 1.003 1590978
-0.027869999 -0.14457574 1.003 1590978
-0.026128151 -0.14544669 1.003 3816826
-0.027869999 -0.14196295 1.003 4872069
-0.026128151 -0.14196295 1.003 3951241
-0.026128151 -0.13935015 1.003 8676972
-0.026128151 -0.13673732 1.003 4871312
-0.025257226 -0.13325357 1.003 6974839
-0.0243863 -0.13064076 1.003 7691097
-0.025257226 -0.12802793 1.003 2770336
-0.0243863 -0.12454417 1.003 4473723
-0.024966916 -0.12077012 1.003 6248830
-0.0243863 -0.11844761 1.003 1590978
-0.0243863 -0.1158348 1.003 5858976
-0.022644384 -0.11496385 1.003 1590978
-0.0243863 -0.11235105 1.003 6322609
-0.022644384 -0.11235105 1.003 6519474
-0.022644384 -0.10973825 1.003 9076344
-0.020902533 -0.10973825 1.003 10327936
-0.022644384 -0.10712543 1.003 4020636
-0.020902533 -0.10712543 1.003 1590978
-0.022644384 -0.10364165 1.003 3947415
-0.020902533 -0.10364165 1.003 5455253
-0.022644384 -0.10102885 1.003 7893610
-0.020902533 -0.1001579 1.003 5920406
-0.020902533 -0.097545102 1.003 10649203
-0.022644384 -0.094061352 1.003 1590978
-0.020902533 -0.094932273 1.003 1590978
-0.022644384 -0.091448531 1.003 5590683
-0.020902533 -0.091448531 1.003 1590978
-0.022644384 -0.087964781 1.003 5723815
-0.020321894 -0.087674469 1.003 4412071
-0.020031575 -0.085351959 1.003 5987738
-0.019741256 -0.083029479 1.003 4480432
-0.017418766 -0.081868209 1.003 1590978
-0.019741256 -0.079545721 1.003 4545969
-0.017418766 -0.079255402 1.003 5921952
-0.019160617 -0.076642551 1.003 9997452
-0.017418766 -0.076642551 1.003 9526396
-0.019160617 -0.074029751 1.003 1590978
-0.017418766 -0.074029751 1.003 1590978
-0.019160617 -0.070546001 1.003 5725323
-0.017418766 -0.070546001 1.003 5398398
-0.019160617 -0.067062251 1.003 6059435
-0.017418766 -0.067933202 1.003 10593685
-0.020902533 -0.064449452 1.003 1590978
-0.031353768 -0.060965702 1.003 1590978
-0.029611917 -0.060965702 1.003 1590978
-0.0243863 -0.062707551 1.003 1590978
-0.022644384 -0.062707551 1.003 5213083
-0.033966608 -0.059223805 1.003 1590978
-0.028535735 -0.17936757 1.006 8359323
-0.0262063 -0.17820282 1.006 9799801
-0.028535735 -0.17529103 1.006 3560618
-0.0262063 -0.17645575 1.006 7432563
-0.031447548 -0.17208806 1.006 2895732
-0.029118111 -0.17237924 1.006 2766223
-0.028826922 -0.16946743 1.006 5464205
-0.028826922 -0.16684678 1.006 1590978
-0.0262063 -0.16597326 1.006 6976652
-0.028535735 -0.16364381 1.006 4871822
-0.0262063 -0.16247909 1.006 5916271
-0.02795336 -0.16073197 1.006 1590978
-0.0262063 -0.16073197 1.006 5066337
-0.02795336 -0.15811136 1.006 4214408
-0.0262063 -0.15811136 1.006 1590978
-0.025623947 -0.15432599 1.006 3819923
-0.025623947 -0.15083182 1.006 3425687
-0.025332771 -0.14850235 1.006 6306889
-0.024459241 -0.14588174 1.006 1590978
-0.024459241 -0.14238757 1.006 1590978
-0.022712113 -0.14151402 1.006 7032168
-0.024459241 -0.1388934 1.006 1590978
-0.022712113 -0.1388934 1.006 3622540
-0.024459241 -0.13627279 1.006 1590978
-0.022712113 -0.13627279 1.006 7299674
-0.022712113 -0.13365215 1.006 1590978
-0.020965055 -0.13277861 1.006 1590978
-0.022712113 -0.13015795 1.006 4540816
-0.020965055 -0.13015795 1.006 4671891
-0.022712113 -0.12753734 1.006 6830653
-0.020965055 -0.12753734 1.006 7097172
-0.022712113 -0.1249167 1.006 7489606
-0.020965055 -0.1249167 1.006 1590978
-0.022712113 -0.12142253 1.006 8679793
-0.020965055 -0.12142253 1.006 5134743
-0.022712113 -0.11792836 1.006 6385315
-0.020965055 -0.11792836 1.006 6517929
-0.020091491 -0.11530771 1.006 6518701
-0.020091491 -0.1126871 1.006 4022203
-0.019217927 -0.10919292 1.006 6585255
-0.019217927 -0.10657232 1.006 1590978
-0.019217927 -0.10395165 1.006 6977447
-0.019217927 -0.10045748 1.006 7109286
-0.019217927 -0.096963309 1.006 6912674
-0.019217927 -0.094342694 1.006 1590978
-0.019217927 -0.091722056 1.006 6382995
-0.019217927 -0.089101411 1.006 10449018
-0.017470868 -0.087354355 1.006 1590978
-0.017470868 -0.085607246 1.006 10321014
-0.017470868 -0.083860181 1.006 10113151
-0.017470868 -0.066389285 1.006 1590978
-0.019217927 -0.064642221 1.006 1590978
-0.02795336 -0.061148051 1.006 1590978
-0.025332771 -0.061148051 1.006 5667252
-0.022712113 -0.061148051 1.006 9671103
-0.020965055 -0.062895112 1.006 1590978
-0.031447548 -0.059400942 1.006 14139565
-0.029700486 -0.059400942 1.006 1590978
-0.026258402 -0.18030769 1.008 11053183
-0.026258402 -0.175056 1.008 5066105
-0.028008934 -0.17155488 1.008 1590978
-0.026258402 -0.17243016 1.008 1590978
-0.025674891 -0.16863728 1.0080001 4937887
-0.024507867 -0.16630322 1.008 7234960
-0.02509138 -0.16396913 1.0080001 3297707
-0.024507867 -0.16017625 1.008 2703764
-0.022757268 -0.16017625 1.008 2048407
-0.024507867 -0.15755041 1.008 1590978
-0.024507867 -0.15579982 1.008 7622714
-0.022757268 -0.15492456 1.008 1590978
