# .PCD v0.7 - Point Cloud Data file format
VERSION 0.7
FIELDS x y z rgba
SIZE 4 4 4 4
TYPE F F F U
COUNT 1 1 1 1
WIDTH 848
HEIGHT 1
VIEWPOINT 0 0 0 1 0 0 0
POINTS 848
DATA ascii
-0.05573485 -0.13309816 0.95800006 4096488
-0.052407384 -0.13309816 0.95800006 9614566
-0.05573485 -0.13143441 0.95800006 15197923
-0.052130096 -0.13087985 0.95800006 11453925
-0.049357235 -0.13087985 0.95800006 11519462
-0.046584334 -0.13143441 0.95800006 4096488
-0.016637268 -0.093168706 0.95800006 4096488
-0.016637268 -0.091504954 0.95800006 2693889
-0.014973566 -0.091504954 0.95800006 4096488
-0.016637268 -0.089009374 0.95800006 2956581
-0.014973566 -0.089841254 0.95800006 4096488
-0.0099823344 -0.08568193 0.95800006 4096488
-0.013309801 -0.081522599 0.95800006 7502653
-0.010536923 -0.082077183 0.95800006 5077682
-0.010814217 -0.079858899 0.95800006 4943022
-0.0550749 -0.13601834 0.96100003 15329508
-0.052293342 -0.13574019 0.96100008 11519462
-0.049233649 -0.13601834 0.96100003 9680357
-0.049233645 -0.13351496 0.96100003 15197670
-0.046730217 -0.13351496 0.96100003 15263207
-0.021696163 -0.097632788 0.96100003 4096488
-0.01947093 -0.097354636 0.96100008 3293535
-0.015854912 -0.096798331 0.96100003 3428488
-0.013351481 -0.096798331 0.96100003 2696489
-0.010848083 -0.096798331 0.96100003 3363209
-0.0083446838 -0.096798331 0.96100003 2497060
-0.021696163 -0.094294921 0.96100003 3362944
-0.019192766 -0.094294921 0.96100003 2831951
-0.01557676 -0.094573073 0.96100008 3096677
-0.013351481 -0.094294921 0.96100003 2956846
-0.010848083 -0.094294921 0.96100003 4096488
-0.0075102281 -0.094294921 0.96100003 3690375
-0.0050067976 -0.095129378 0.96100003 3215129
-0.021696163 -0.090957046 0.96100003 3165051
-0.019192766 -0.090957053 0.96100003 2765381
-0.013351481 -0.090957046 0.96100003 3877947
-0.010848083 -0.090957053 0.96100003 4156042
-0.0075102281 -0.090957053 0.96100003 4483735
-0.0041723419 -0.090957053 0.96100003 5336480
-0.021696163 -0.088453636 0.96100003 2234398
-0.019192766 -0.088453636 0.96100003 3231109
-0.015020456 -0.088453636 0.96100003 4096488
-0.013351481 -0.088453636 0.96100003 3812411
-0.010848083 -0.088453636 0.96100003 4600891
-0.0075102281 -0.088453636 0.96100003 5587255
-0.022530653 -0.085950248 0.96100003 4025270
-0.019192766 -0.085950248 0.96100003 3756935
-0.015854912 -0.085950248 0.96100003 3953298
-0.013351481 -0.085950248 0.96100003 4743581
-0.01168257 -0.085950248 0.96100003 4096488
-0.0075102281 -0.085950248 0.96100003 4875664
-0.022530653 -0.082612373 0.96100003 5268330
-0.019192766 -0.082612373 0.96100003 5404569
-0.016133064 -0.082890533 0.96100008 6125184
-0.01168257 -0.083446853 0.96100003 4096488
-0.0075102281 -0.082612373 0.96100003 5727323
-0.022530653 -0.080108985 0.96100003 6060951
-0.019192766 -0.080108985 0.96100003 8616786
-0.015854912 -0.080108985 0.96100003 8619345
-0.013351481 -0.079274505 0.96100003 7046301
-0.010848083 -0.078440018 0.96100003 4096488
-0.0075102281 -0.079274505 0.96100003 5534899
-0.013351481 -0.076771118 0.96100003 12495659
-0.010848083 -0.076771118 0.96100003 14335850
-0.0075102281 -0.076771118 0.96100003 4096488
-0.046827469 -0.13630143 0.96300006 15263975
-0.045155086 -0.13379282 0.96300006 4096488
-0.010034434 -0.1204135 0.96300006 4096488
-0.0083620502 -0.1204135 0.96300006 4407357
-0.010034434 -0.1179049 0.96300006 4482705
-0.0083620502 -0.1179049 0.96300006 4415630
-0.010034434 -0.1153963 0.96300006 7507547
-0.0083620502 -0.1153963 0.96300006 7508043
-0.010591917 -0.11316641 0.96300006 4416418
-0.0083620502 -0.11288768 0.96300006 4096488
0.0033448329 -0.10703424 0.96300006 4096488
-0.022577543 -0.1003446 0.96300006 2433556
-0.019232709 -0.1003446 0.96300006 3220248
-0.025643613 -0.097557247 0.96300006 4096488
-0.023413766 -0.097835973 0.96300006 3232126
-0.018396486 -0.098672166 0.96300006 4096488
-0.015887909 -0.098672166 0.96300006 3494539
-0.013379267 -0.098672166 0.96300006 4096488
-0.011706883 -0.098672166 0.96300006 4096488
-0.0066896658 -0.098672166 0.96300006 4096488
-0.0039022944 -0.097557247 0.96300006 3169699
-0.02508615 -0.094491169 0.96300006 2037516
-0.023413766 -0.094491169 0.96300006 3165821
-0.0039022944 -0.094212435 0.96300006 4417967
-0.023413766 -0.09114635 0.96300006 3033467
-0.0016723846 -0.09114635 0.96300006 5329744
-0.023413766 -0.088637725 0.96300006 2167579
-0.0041810251 -0.088637725 0.96300006 5849920
-0.0016723846 -0.088637725 0.96300006 5521211
-0.028430983 -0.086129121 0.96300006 3755925
-0.025922343 -0.086129114 0.96300006 3762102
-0.0041810251 -0.086129121 0.96300006 4421304
-0.0016723846 -0.085292906 0.96300006 5659457
-0.030103369 -0.081948087 0.96300006 4096488
-0.02508615 -0.081948087 0.96300006 4096488
-0.015051716 -0.081948087 0.96300006 4096488
-0.013379267 -0.083620518 0.96300006 4096488
-0.0039022944 -0.082505569 0.96300006 4939868
-0.0016723846 -0.081948087 0.96300006 4537101
-0.030103369 -0.080275699 0.96300006 4096488
-0.028430983 -0.080275699 0.96300006 6052645
-0.025643613 -0.079718225 0.96300006 5011117
-0.023413766 -0.078603268 0.96300006 7232556
-0.0041810251 -0.079439484 0.96300006 4739212
-0.0016723846 -0.079439484 0.96300006 6524351
-0.0066896658 -0.075258449 0.96300006 11122766
-0.0041810251 -0.076094665 0.96300006 7576981
-0.0016723846 -0.076094665 0.96300006 13095252
-0 -0.076094665 0.96300006 7511698
-0.013420948 -0.15098581 0.96600002 3231570
-0.010904524 -0.15098581 0.96600002 2167860
-0.013420948 -0.14930816 0.96600002 4096488
-0.010904524 -0.14846936 0.96600002 4096488
-0.010065694 -0.14511412 0.96600002 6849446
-0.0083881002 -0.14427534 0.96600002 4096488
-0.010065694 -0.14259769 0.96600002 11181916
-0.0083881002 -0.14259769 0.96600002 12366960
-0.010065694 -0.1409201 0.96600002 4096488
-0.0083881002 -0.14008129 0.96600002 4096488
-0.010065694 -0.13756485 0.96600002 4096488
-0.0078289025 -0.13644645 0.96600002 6589625
-0.0083881002 -0.13337079 0.96600002 7550784
-0.010065694 -0.12749915 0.96600002 4206414
-0.0075493027 -0.12749915 0.96600002 5862534
-0.0050328472 -0.12749915 0.96600002 11510618
-0.010065694 -0.12498268 0.96600002 4096488
-0.0075493027 -0.12498268 0.96600002 4026045
-0.0050328472 -0.12498268 0.96600002 11115342
-0.040262908 -0.12246627 0.96600002 15264231
-0.038585249 -0.12246627 0.96600002 4096488
-0.018453795 -0.12078863 0.96600002 4096488
-0.015937403 -0.12078863 0.96600002 4154011
-0.013420948 -0.12078863 0.96600002 4672084
-0.011184134 -0.12190706 0.96600002 4222138
-0.0072697042 -0.12190706 0.96600002 5267572
-0.0041940501 -0.12162745 0.96600002 7638945
-0.0016775945 -0.12246627 0.96600002 11510638
-0.018453795 -0.11827221 0.96600002 4152474
-0.015937403 -0.11827221 0.96600002 4223425
-0.013420948 -0.11827221 0.96600002 4935251
-0.011743354 -0.11827221 0.96600002 4547478
-0.0067105056 -0.11827221 0.96600002 5927564
-0.0041940501 -0.11827221 0.96600002 7506844
-0.0016775945 -0.11827221 0.96600002 11573596
-0.015937403 -0.11491698 0.96600002 7179118
-0.013420948 -0.11491698 0.96600002 6980750
-0.011743354 -0.1157558 0.96600002 7507035
-0.0067105056 -0.1157558 0.96600002 8951612
-0.0041940501 -0.1157558 0.96600002 10590536
-0.018453795 -0.11240055 0.96600002 5525258
-0.0167762 -0.11240055 0.96600002 5456395
-0.011743354 -0.11240055 0.96600002 5254930
-0.0067105056 -0.11240055 0.96600002 4096488
-0.0050328472 -0.11240055 0.96600002 4096488
0.0033552528 -0.11240055 0.96600002 10133617
-0.018453795 -0.11072291 0.96600002 4096488
-0.0167762 -0.10988411 0.96600002 3036296
-0.013420948 -0.10904532 0.96600002 4096488
-0.011184134 -0.11016371 0.96600002 3170728
-0.0083881002 -0.11072291 0.96600002 459812
-0.0033552528 -0.10904532 0.96600002 4096488
0.0016776264 -0.10904532 0.96600002 4096488
0.0039144512 -0.10960452 0.96600002 4481704
0.0067104739 -0.10904532 0.96600002 6576897
-0.011743354 -0.10736767 0.96600002 4096488
-0.0033552528 -0.10652888 0.96600002 2507640
-0.0016775945 -0.10652888 0.96600002 2179703
-0.026003098 -0.10233484 0.96600002 4096488
-0.022368267 -0.10289405 0.96600002 3097178
-0.019292625 -0.10317364 0.96600002 3292490
-0.0167762 -0.10317364 0.96600002 3090466
-0.0016775945 -0.10233484 0.96600002 1248005
-0.026003098 -0.1006572 0.96600002 4096488
-0.015937403 -0.1006572 0.96600002 2958371
-0.013420948 -0.1006572 0.96600002 2565918
-0.010904524 -0.1006572 0.96600002 2104359
-0.0075493027 -0.1006572 0.96600002 1183774
-0.0041940501 -0.1006572 0.96600002 1052180
-0.0016775945 -0.1006572 0.96600002 1313806
-0.010065694 -0.098979555 0.96600002 4096488
-0.0075493027 -0.098140761 0.96600002 2968967
-0.0050328472 -0.098979555 0.96600002 1185054
-0.0016775945 -0.098140761 0.96600002 2771072
-0.0016775945 -0.094785526 0.96600002 3351602
-0.025164301 -0.091430292 0.96600002 2902135
0.0005592088 -0.091150694 0.96600002 3622510
-0.0016775945 -0.087236255 0.96600002 5192254
0.0008388132 -0.088075049 0.96600002 4096488
0.0008388132 -0.085558616 0.96600002 4549266
-0.028519554 -0.083042189 0.96600002 4802614
-0.026282698 -0.083321802 0.96600002 4096488
-0.0050328472 -0.083881013 0.96600002 6249246
-0.0016775945 -0.083881013 0.96600002 6183207
-0 -0.083042189 0.96600002 4096488
-0 -0.079686962 0.96600002 4096488
-0.018511105 -0.15986887 0.96900004 3084836
-0.015986899 -0.15986887 0.96900004 3477797
-0.013462627 -0.15986887 0.96900004 3805233
-0.011779823 -0.15986887 0.96900004 4001845
-0.0084141502 -0.15986887 0.96900004 3932466
-0.022718213 -0.15650322 0.96900004 4096488
-0.019072061 -0.15706415 0.96900004 4882860
-0.015986899 -0.15734461 0.96900004 4818365
-0.013462627 -0.15734461 0.96900004 6321990
-0.010938389 -0.15734461 0.96900004 4096488
-0.0078532156 -0.15706414 0.96900004 5997950
-0.022718213 -0.15397896 0.96900004 7113363
-0.019352539 -0.15397896 0.96900004 8094328
-0.015986899 -0.15397896 0.96900004 7962227
-0.013462627 -0.15397896 0.96900004 8153677
-0.010938389 -0.15397896 0.96900004 6914191
-0.0075727482 -0.15397896 0.96900004 7958631
-0.0044875424 -0.15369849 0.96900004 9148291
-0.0016828044 -0.15313755 0.96900004 4096488
-0.021876778 -0.1514547 0.96900004 4096488
-0.019352539 -0.1514547 0.96900004 5197146
-0.015986899 -0.1514547 0.96900004 5462357
-0.0075727478 -0.1514547 0.96900004 7236425
-0.0042070751 -0.1514547 0.96900004 11709792
-0.0016828044 -0.1514547 0.96900004 11248753
-0.021876778 -0.14808904 0.96900004 4473928
-0.019352539 -0.14893045 0.96900004 4096488
-0.015986899 -0.14893045 0.96900004 4877473
-0.013462627 -0.14808904 0.96900004 5588030
-0.0075727478 -0.14893045 0.96900004 7046305
-0.0042070751 -0.14893045 0.96900004 7968169
-0.0016828044 -0.14893045 0.96900004 11841148
-0 -0.14893045 0.96900004 4096488
-0.015706431 -0.14584526 0.96900004 5203584
-0.013462627 -0.14556479 0.96900004 7168552
-0.011779823 -0.14556479 0.96900004 5796502
-0.0072922809 -0.14584526 0.96900004 8884126
-0.0042070751 -0.14556479 0.96900004 8228232
-0 -0.14640619 0.96900004 4096488
-0.015145496 -0.14219913 0.96900004 4415638
-0.013462627 -0.14219913 0.96900004 7164208
-0.011779823 -0.14219913 0.96900004 7046806
-0.0067313458 -0.14219913 0.96900004 4096488
-0.0042070751 -0.14219913 0.96900004 6518449
-0.0016828044 -0.14135773 0.96900004 11971204
-0 -0.14219913 0.96900004 4096488
-0.013462627 -0.13967489 0.96900004 6505782
-0.010938389 -0.13967489 0.96900004 7442084
-0.0067313458 -0.13967489 0.96900004 4096488
-0.0042070751 -0.13967489 0.96900004 8429425
-0.0016828044 -0.13967489 0.96900004 10859125
-0 -0.13967489 0.96900004 4096488
-0.045436423 -0.13715065 0.96900004 15329510
-0.043753557 -0.13715065 0.96900004 9745895
-0.013462627 -0.13715065 0.96900004 4349088
-0.011218867 -0.13687018 0.96900004 4096488
-0.0067313458 -0.13799207 0.96900004 9416327
-0.0042070751 -0.13715065 0.96900004 5276362
-0.0016828044 -0.13715065 0.96900004 9802870
-0 -0.13715065 0.96900004 4096488
-0.013462627 -0.13462642 0.96900004 3092307
-0.010657912 -0.13406548 0.96900004 4279662
-0.0067313458 -0.13378499 0.96900004 6915745
-0.0042070751 -0.13378499 0.96900004 8949391
-0.0016828044 -0.13378499 0.96900004 10262669
-0 -0.13378499 0.96900004 4096488
-0.02524245 -0.13041934 0.96900004 4616104
-0.022718213 -0.13041934 0.96900004 4350108
-0.019633017 -0.13013887 0.96900004 4090295
-0.015145496 -0.13041934 0.96900004 4096488
-0.013462627 -0.13041934 0.96900004 4086427
-0.010938389 -0.13041934 0.96900004 4018329
-0.0075727478 -0.13041934 0.96900004 4341605
-0.0042070751 -0.13041934 0.96900004 9478291
-0.0016828044 -0.13041934 0.96900004 11118482
0.00084141822 -0.13041934 0.96900004 6653881
-0.037863679 -0.12621225 0.96900004 8235744
-0.02524245 -0.12705368 0.96900004 6188649
-0.022718213 -0.12705368 0.96900004 4153498
-0.019352539 -0.12705368 0.96900004 3890335
-0.015986899 -0.12705368 0.96900004 4017012
-0.013462627 -0.12705368 0.96900004 4275794
-0.011779823 -0.12705368 0.96900004 4283547
-0.0033656729 -0.12705368 0.96900004 4096488
-0.0016828044 -0.12705368 0.96900004 11775375
0.00084141822 -0.12705368 0.96900004 4096488
0.0033656729 -0.12621225 0.96900004 4096488
-0.040387943 -0.1245294 0.96900004 15330535
-0.038705081 -0.1245294 0.96900004 4096488
-0.022718213 -0.1245294 0.96900004 3626649
-0.019352539 -0.1245294 0.96900004 3880781
-0.015986899 -0.1245294 0.96900004 4341329
-0.013462627 -0.1245294 0.96900004 4603477
-0.011779823 -0.1245294 0.96900004 4800088
-0.0033656729 -0.1245294 0.96900004 4096488
-0.0016828044 -0.1245294 0.96900004 11643774
0.00084141822 -0.1245294 0.96900004 7904186
0.0033656729 -0.1245294 0.96900004 10592920
-0.02524245 -0.12116375 0.96900004 6251880
-0.022718213 -0.12200517 0.96900004 4157889
-0.019633017 -0.12228565 0.96900004 3689850
-0.015986899 -0.1228466 0.96900004 4153756
-0.013462627 -0.1228466 0.96900004 4605271
-0.0016828044 -0.12116375 0.96900004 11378538
0.00084141822 -0.12200517 0.96900004 4096488
0.0033656729 -0.1228466 0.96900004 4096488
-0.02524245 -0.11948094 0.96900004 5659993
-0.022718213 -0.11948094 0.96900004 3626906
-0.020193972 -0.11863951 0.96900004 3813191
0.00084141822 -0.11863951 0.96900004 7770024
0.0039266078 -0.11835903 0.96900004 4815294
-0.019072061 -0.11499339 0.96900004 6915437
-0.0067313458 -0.11443243 0.96900004 4096488
-0.0042070751 -0.11443243 0.96900004 4096488
-0.0016828044 -0.11527386 0.96900004 10851377
0.00084141822 -0.11527386 0.96900004 9212266
0.0039266078 -0.11499339 0.96900004 7832210
0.0067313137 -0.11443243 0.96900004 4096488
-0.020193972 -0.11106677 0.96900004 1770777
-0.015145496 -0.1119082 0.96900004 4676474
-0.013462627 -0.1119082 0.96900004 4675962
-0.0067313458 -0.11106677 0.96900004 4096488
-0.0039266078 -0.11162772 0.96900004 5011867
-0.0016828044 -0.1119082 0.96900004 6127994
0.00084141822 -0.1119082 0.96900004 5540031
0.0050484776 -0.1119082 0.96900004 4096488
0.0067313137 -0.1119082 0.96900004 6458809
-0.019352539 -0.10938397 0.96900004 3297673
-0.015145496 -0.10938397 0.96900004 4096488
-0.010096955 -0.10938397 0.96900004 4096488
-0.0075727478 -0.10938397 0.96900004 4096488
-0.0050484776 -0.10938397 0.96900004 1181201
-0.0016828044 -0.10938397 0.96900004 3080961
-0 -0.10938397 0.96900004 4096488
-0.021876778 -0.10601831 0.96900004 4096488
-0.019352539 -0.10685971 0.96900004 3358036
-0.015986899 -0.10685971 0.96900004 3561101
-0.013462627 -0.10685971 0.96900004 4096488
-0.010657912 -0.10657924 0.96900004 4096488
-0.0075727478 -0.10685971 0.96900004 2173775
-0.0050484776 -0.10685971 0.96900004 4096488
0.00084141822 -0.10685971 0.96900004 1188679
0.0033656729 -0.10601831 0.96900004 4096488
-0.02524245 -0.10433546 0.96900004 2563858
-0.023559647 -0.10433546 0.96900004 4096488
-0.015145496 -0.10349406 0.96900004 3495299
-0.013462627 -0.10349406 0.96900004 3298686
-0.010938389 -0.10349406 0.96900004 3034500
-0.0075727478 -0.10349406 0.96900004 1976397
-0.0042070751 -0.10349406 0.96900004 1649220
-0.0016828044 -0.10433546 0.96900004 1248264
0.00084141822 -0.10349406 0.96900004 2507640
-0.026925255 -0.099286951 0.96900004 4096488
0.00084141822 -0.10012837 0.96900004 2901115
0.0044875424 -0.099847905 0.96900004 3694757
0.00084141822 -0.097604148 0.96900004 2902149
0.0042070751 -0.097604148 0.96900004 2705283
-0.028608123 -0.095921293 0.96900004 1315088
0.00084141822 -0.095079891 0.96900004 4096488
0.0042070751 -0.095079891 0.96900004 3565494
0.0016828364 -0.092555635 0.96900004 2893364
0.0042070751 -0.091714233 0.96900004 3495048
-0.026083853 -0.089189976 0.96900004 2100506
0.0042070751 -0.088348582 0.96900004 2634316
0.0067313137 -0.087507173 0.96900004 4096488
0.0016828364 -0.084141523 0.96900004 5921063
0.0042070751 -0.084982917 0.96900004 4158647
0.0067313137 -0.084982924 0.96900004 4416908
0.0016828364 -0.082458667 0.96900004 4671249
0.0042070751 -0.082458667 0.96900004 5394456
0.0067313137 -0.082458667 0.96900004 6118189
0.0016828364 -0.080775857 0.96900004 3486287
-0.0033830397 -0.17253435 0.97400004 4096488
-0.033830266 -0.16915134 0.97400004 4096488
-0.031293005 -0.16915134 0.97400004 3159606
-0.0076118233 -0.16915134 0.97400004 3091497
-0.0042270469 -0.16991025 0.97350001 3228506
-0.0016897509 -0.16982342 0.97300005 3158319
0.00056383997 -0.1695994 0.97333336 3827116
0.0042235735 -0.16897766 0.97300005 3758987
0.0067660469 -0.16915134 0.97400004 4096488
-0.037136894 -0.16542791 0.97200006 8824265
-0.034622174 -0.1663579 0.97250009 3424888
-0.031260874 -0.16644387 0.97300005 3562383
-0.027852654 -0.16627194 0.97200006 3359586
-0.025320601 -0.16627194 0.97200006 2961197
-0.022788547 -0.16627194 0.97200006 3430024
-0.019431558 -0.16644301 0.97300005 3228249
-0.01606939 -0.16576831 0.97400004 3561856
-0.013532094 -0.16576831 0.97400004 2960685
-0.010972254 -0.16542791 0.97200006 2894630
-0.0073194886 -0.16610521 0.97266674 3426154
-0.004222705 -0.1663579 0.97250009 3561353
-0.0016880144 -0.16627194 0.97200006 3627141
0.00084402325 -0.16627194 0.97200006 3894710
0.004221837 -0.1663579 0.97250003 4096488
0.0067660469 -0.16745983 0.97400004 4096488
-0.037136894 -0.16373989 0.97200006 8824267
-0.034346629 -0.16328835 0.97266674 3760290
-0.031260874 -0.16306257 0.97300005 3628426
-0.027852654 -0.16289586 0.97200006 3627152
-0.025320601 -0.16289586 0.97200006 3092527
-0.022788547 -0.16289586 0.97200006 3763641
-0.019412454 -0.16289586 0.97200006 3162452
-0.016036393 -0.16289586 0.97200006 3227721
-0.013504308 -0.16289586 0.97200006 2565934
-0.010972254 -0.16289587 0.97200006 4096488
-0.0075961929 -0.16289586 0.97200006 3101067
-0.0042201001 -0.16289586 0.97200006 2308956
-0.0016880144 -0.16289586 0.97200006 1380909
0.00084575993 -0.16323105 0.97400004 2765137
-0.03044723 -0.16069379 0.97400004 4096488
-0.028173368 -0.16001996 0.97333336 3099006
-0.025320601 -0.16036382 0.97200006 2630707
-0.022788547 -0.16036382 0.97200006 2628640
-0.020256493 -0.16036382 0.97200006 2889254
-0.010128214 -0.16036382 0.97200006 3934266
-0.006752186 -0.16036382 0.97200006 4592426
-0.0042201001 -0.16036382 0.97200006 5519215
-0.0016880144 -0.16036382 0.97200006 6320238
0.0011276799 -0.16001996 0.97333336 5866893
0.0033830397 -0.15984802 0.97400004 5540274
-0.02759099 -0.1576581 0.97266674 4096488
-0.025320601 -0.15783176 0.97200006 4078364
-0.022788547 -0.15867576 0.97200006 4096488
-0.020256493 -0.15867576 0.97200006 4096488
-0.006752186 -0.15867576 0.97200006 4096488
-0.0042201001 -0.15783174 0.97200006 5407939
-0.0016880144 -0.15783176 0.97200006 11773012
0.00056268217 -0.15755042 0.97200006 6523311
0.0033830397 -0.15731077 0.97400004 11509052
-0.03044723 -0.15561922 0.97400004 4096488
-0.027882177 -0.15461457 0.97300005 6388628
-0.025320601 -0.15445568 0.97200006 8282693
-0.003376093 -0.15529968 0.97200006 11508571
-0.0016880144 -0.15529968 0.97200006 11442776
0.00084489159 -0.15453556 0.97250009 5867459
0.0033830397 -0.15477347 0.97400004 6783390
-0.027064187 -0.15223619 0.97400004 5793126
-0.025320601 -0.15107958 0.97200006 3895201
-0.023069894 -0.15079825 0.97200006 4023733
0.0011253643 -0.15136093 0.97200006 5406657
0.0033795664 -0.15123588 0.97300005 4096488
-0.025346652 -0.1478546 0.97300005 4484006
-0.023632586 -0.14854753 0.97200006 4664896
0.0016880465 -0.14854753 0.97200006 12430733
0.003376093 -0.14854753 0.97200006 12036742
-0.027064187 -0.14547016 0.97400004 7640455
-0.025372701 -0.14547016 0.97400004 4673891
-0.022788547 -0.14601545 0.97200006 4286397
-0.019412454 -0.14601545 0.97200006 5136500
-0.0168804 -0.14517145 0.97200006 5723481
-0.0016880144 -0.14601545 0.97200006 11511168
0.0011253643 -0.14573412 0.97200006 5933516
0.003376093 -0.14601545 0.97200006 4096488
-0.027064187 -0.14293288 0.97400004 4096488
-0.025372701 -0.14293288 0.97400004 4287399
-0.022812858 -0.14278613 0.97300005 4288192
-0.019412454 -0.14263937 0.97200006 4872310
-0.0168804 -0.14263937 0.97200006 4735832
-0.0016880144 -0.14348339 0.97200006 11641746
0.0016880465 -0.14263937 0.97200006 9406867
0.0042253099 -0.14278613 0.97300005 7113403
-0.042201001 -0.1392633 0.97200006 15461355
-0.03044723 -0.13870411 0.97400004 4096488
-0.027896071 -0.13947864 0.97350001 4817104
-0.025346652 -0.13940746 0.97300005 4873323
-0.022788547 -0.1392633 0.97200006 4349085
-0.019412454 -0.1392633 0.97200006 4542332
-0.016036393 -0.1392633 0.97200006 4017270
0.0016880465 -0.1392633 0.97200006 8359557
0.0042253099 -0.13940659 0.97300005 5408461
-0.042201001 -0.13673124 0.97200006 4096488
-0.03044723 -0.13532108 0.97400004 4096488
-0.027852654 -0.13588724 0.97200006 8361104
-0.025320601 -0.13588724 0.97200006 5594977
-0.022788547 -0.13588724 0.97200006 4283806
-0.019412454 -0.13588724 0.97200006 4149116
-0.016036393 -0.13588722 0.97200006 3754617
0.0016880465 -0.13588724 0.97200006 9014673
0.0042253099 -0.13602704 0.97300005 6916545
-0.03044723 -0.13362956 0.97400004 9739132
-0.027852654 -0.13335516 0.97200006 5933231
-0.025320601 -0.13335516 0.97200006 5463138
-0.022788547 -0.13335516 0.97200006 4414363
-0.019412454 -0.13335516 0.97200006 4077655
-0.016036393 -0.13335516 0.97200006 3683411
-0.013504308 -0.13335516 0.97200006 3617103
-0.011816293 -0.13335516 0.97200006 4096488
0.0016880465 -0.13335516 0.97200006 9146258
0.0042201001 -0.13335516 0.97200006 10065046
-0.042821568 -0.13072121 0.97333336 15197924
-0.040596347 -0.13109228 0.97400004 4096488
-0.038904794 -0.13109228 0.97400004 4096488
-0.033830266 -0.13024652 0.97400004 9078148
-0.031277373 -0.13102455 0.97350001 6522039
-0.027852654 -0.13082311 0.97200006 5276626
-0.018568415 -0.13166714 0.97200006 4096488
-0.0168804 -0.13082311 0.97200006 3946055
0.0042201001 -0.13082311 0.97200006 5670609
-0.043045007 -0.12744704 0.97200006 15066594
-0.040512986 -0.12744704 0.97200006 9680615
-0.038824908 -0.12829107 0.97200006 4096488
-0.034676012 -0.12686349 0.97400004 6656204
-0.031293005 -0.12770927 0.97400004 6193072
-0.027852654 -0.12744704 0.97200006 7505306
0.0045014359 -0.12772839 0.97200006 10197144
0.0073298868 -0.12742734 0.9740001 8032438
-0.037136894 -0.12407093 0.97200006 4096488
-0.034676012 -0.12432623 0.97400004 5010381
-0.031293005 -0.12432623 0.97400004 6848916
-0.027852654 -0.12407093 0.97200006 7637924
-0.025320601 -0.12407093 0.97200006 6188915
0.005064107 -0.12407093 0.97200006 8814449
0.0076048602 -0.12419859 0.97300005 7371891
-0.038059048 -0.12178895 0.97400004 4096488
-0.034676012 -0.1209432 0.97400004 4096488
-0.031293005 -0.1209432 0.97400004 6916527
-0.028173365 -0.12114175 0.97333336 9409146
0.0042201001 -0.12153886 0.97200006 7963256
0.0078890957 -0.12114175 0.97333336 4611936
-0.038059048 -0.11840592 0.97400004 4096488
-0.034676012 -0.11840592 0.97400004 8748674
-0.031293005 -0.11840592 0.97400004 8159089
-0.02759099 -0.11880653 0.97266674 5472704
-0.025320601 -0.11816279 0.97200006 5136468
-0.022788547 -0.11816279 0.97200006 4096488
0.005064107 -0.11985085 0.97200006 6516859
0.0073206252 -0.11880653 0.97266674 4880053
-0.034676012 -0.11586866 0.97400004 4096488
-0.031293005 -0.11586867 0.97400004 5994401
-0.027867416 -0.11569066 0.97250009 7437699
-0.025320601 -0.11563075 0.97200006 8086844
-0.022788547 -0.11563075 0.97200006 4096488
-0.020256493 -0.11647478 0.97200006 6844211
0.005064107 -0.11647478 0.97200006 8087128
0.0078833075 -0.11599197 0.97266674 5075781
0.010149087 -0.11502289 0.97400004 4096488
-0.031293005 -0.11248564 0.97400004 6318674
-0.027882177 -0.11237015 0.97300005 5858882
-0.025320601 -0.11225466 0.97200006 4933895
-0.022788547 -0.11225466 0.97200006 5009525
-0.020256493 -0.1130987 0.97200006 4096488
0.0084402002 -0.11225466 0.97200006 9739369
0.010712927 -0.11220372 0.9740001 4096488
0.013532094 -0.11163987 0.97400004 12431721
-0.027064187 -0.10910261 0.97400004 3622775
-0.025320601 -0.10887858 0.97200006 3087126
-0.022788547 -0.10887858 0.97200006 3494024
0.005064107 -0.10803456 0.97200006 4096488
0.0067521539 -0.10803456 0.97200006 4096488
0.010994846 -0.10994838 0.97400004 4096488
0.013532094 -0.10994838 0.97400004 4096488
-0.027064187 -0.10656536 0.97400004 1971989
-0.025320601 -0.10634654 0.97200006 4096488
-0.023632586 -0.10634654 0.97200006 2892819
0.005064107 -0.10634654 0.97200006 2823477
0.0067521539 -0.10634654 0.97200006 3613248
-0.027909964 -0.10402808 0.97400004 4096488
0.0042201001 -0.10381448 0.97200006 4156089
0.0076083336 -0.10397512 0.97350001 5786692
-0.030384708 -0.09959434 0.97200006 4096488
-0.028696693 -0.09959434 0.97200006 1116948
0.003376093 -0.1012824 0.97200006 2425880
0.007596177 -0.10043837 0.97200006 5401998
0.010994846 -0.10064504 0.97400004 6840921
-0.033830266 -0.096416242 0.97400004 4096488
-0.031293005 -0.09726201 0.97400004 2042441
-0.027852654 -0.09706229 0.97200006 2639741
0.0076005189 -0.097112656 0.97250009 4863571
0.010149087 -0.09726201 0.97400004 5914411
-0.027852654 -0.094530247 0.97200006 1511945
0.007596177 -0.094530247 0.97200006 4096488
0.010149087 -0.094724759 0.97400004 3151150
-0.031228747 -0.091998175 0.97200006 3565244
-0.027852654 -0.091998175 0.97200006 2770558
0.0076005184 -0.092045076 0.97250009 4085901
-0.031228747 -0.08946611 0.97200006 2564158
-0.028696693 -0.08946611 0.97200006 2034729
0.0078833066 -0.088964805 0.97266674 4096488
0.0084402002 -0.085246027 0.97200006 4810130
0.010128247 -0.085246027 0.97200006 6775110
0.0042201001 -0.081025943 0.97200006 4350619
0.0067521539 -0.081025943 0.97200006 4096488
0.0016880465 -0.07933788 0.97200006 9216141
0.003376093 -0.07933788 0.97200006 4096488
0.0016880465 -0.077649869 0.97200006 15000680
0.0042201001 -0.077649869 0.97200006 8424872
-0.0042418088 -0.1747625 0.97700006 2961195
-0.0016966974 -0.1747625 0.97700006 3354668
-0.011028696 -0.17136908 0.97700006 3495561
-0.0073524858 -0.17193465 0.97700012 3761320
-0.0050901575 -0.17306575 0.97700006 2961195
-0.0016966974 -0.17306575 0.97700006 3288878
0.00084836496 -0.17221741 0.97700006 3758477
0.0033934598 -0.17221741 0.97700006 4096488
-0.011028696 -0.16967233 0.97700006 3026212
-0.011028696 -0.16797562 0.97700006 4096488
-0.0084836176 -0.16797562 0.97700006 3090980
0.0079180412 -0.16684447 0.97700012 4149359
0.0039590257 -0.16345102 0.97700012 3628961
-0.031389389 -0.16034037 0.97700006 4096488
0.0050901575 -0.16034037 0.97700006 8166309
-0.030541008 -0.1577953 0.97700006 4865582
0.0050901575 -0.1577953 0.97700006 11641161
-0.030541008 -0.15440185 0.97700006 7696462
-0.030541008 -0.1527051 0.97700006 4096488
-0.028278723 -0.15157394 0.97700012 4096488
0.0050901575 -0.15185672 0.97700006 8882297
-0.027995929 -0.14846329 0.97700006 8098208
0.0050901575 -0.14846329 0.97700006 11316372
0.0067868871 -0.14761493 0.97700006 4096488
-0.02884431 -0.14506984 0.97700006 10259578
0.0050901575 -0.14591822 0.97700006 4096488
0.0067868871 -0.14506984 0.97700006 6918087
-0.030541008 -0.14252478 0.97700006 8684668
-0.02884431 -0.14252478 0.97700006 4096488
0.0067868871 -0.14252478 0.97700006 10267558
-0.030541008 -0.14082803 0.97700006 4096488
0.0067868871 -0.13997968 0.97700006 7115974
-0.040721387 -0.13743457 0.97700006 15527662
-0.031672187 -0.13686901 0.97700012 9604988
0.0067868871 -0.13658623 0.97700006 4096488
-0.037327927 -0.13234444 0.97700006 12242386
-0.032237772 -0.13404115 0.97700006 9410429
0.0073524639 -0.13291001 0.97700012 6130124
-0.037327927 -0.13064769 0.97700006 12505555
-0.035631165 -0.13064769 0.97700006 9410475
0.0076352526 -0.13064769 0.97700006 7048640
-0.037327927 -0.128951 0.97700006 12834517
-0.034782819 -0.128951 0.97700006 4096488
0.0084836176 -0.128951 0.97700006 10196892
0.010180347 -0.12725426 0.97700006 4096488
0.010745923 -0.12442638 0.97700012 6062262
0.013573774 -0.12470916 0.97700006 4096488
0.010180347 -0.12131572 0.97700006 5065874
0.010745923 -0.1176395 0.97700012 5208494
0.011877077 -0.11537718 0.97700006 8615526
0.013573774 -0.11537718 0.97700006 10590852
-0.03393447 -0.11198373 0.97700006 7033657
0.011877077 -0.11368048 0.97700006 4096488
0.013573774 -0.11368048 0.97700006 4096488
-0.03393447 -0.10943867 0.97700006 2823742
-0.031389389 -0.10943867 0.97700006 3891642
-0.02884431 -0.10943867 0.97700006 2033425
-0.03393447 -0.10604522 0.97700006 1775127
-0.031389389 -0.10604522 0.97700006 2444160
-0.02884431 -0.10604522 0.97700006 1315090
-0.03393447 -0.10350015 0.97700006 1904901
-0.032237772 -0.10350015 0.97700006 4096488
-0.03393447 -0.10095502 0.97700006 2967926
-0.032237772 -0.10095502 0.97700006 2443130
-0.02884431 -0.1018034 0.97700006 4096488
-0.030541008 -0.095016517 0.97700006 4096488
0.0084836176 -0.083139442 0.97700006 6578996
0.010180347 -0.083139442 0.97700006 7038268
-0.0085096667 -0.17700104 0.98000002 3092514
-0.0034038797 -0.17700104 0.98000002 4096488
0.0017019399 -0.17700104 0.98000002 3617327
-0.010211574 -0.17529914 0.98000002 3026735
-0.007658713 -0.17529914 0.98000002 3496072
0.00085096993 -0.17529914 0.98000002 3486253
-0.015317426 -0.17189527 0.98000002 3025709
-0.013615455 -0.17189527 0.98000002 2960173
-0.010211574 -0.17359719 0.98000002 4096488
-0.0085096667 -0.17359719 0.98000002 3091498
0.0017019399 -0.17359719 0.98000002 3486256
-0.01616838 -0.16934237 0.98000002 2960425
-0.013615455 -0.16934237 0.98000002 2960685
0.005105787 -0.16508755 0.98000002 2891550
0.0068077273 -0.16508755 0.98000002 4096488
0.0076586967 -0.1633856 0.98000002 3100574
-0.034038667 -0.16168369 0.98000002 4096488
-0.03233676 -0.15998173 0.98000002 2637359
0.0076586972 -0.1608327 0.98000002 4816846
0.011062577 -0.16168369 0.98000002 4096488
-0.03233676 -0.15742885 0.98000002 5203344
0.005105787 -0.15657787 0.98000002 4096488
0.0068077273 -0.15742885 0.98000002 4096488
-0.034038667 -0.153174 0.98000002 4096488
-0.03233676 -0.15402497 0.98000002 7498074
0.005105787 -0.15487595 0.98000002 9469803
0.0073750406 -0.15374133 0.98000002 7635622
-0.034038667 -0.15147205 0.98000002 8814991
-0.031485774 -0.15147205 0.98000002 4096488
0.0076586967 -0.15147205 0.98000002 9801857
-0.034038667 -0.14806819 0.98000002 9274243
-0.031485774 -0.14891917 0.98000002 5210830
0.0079423543 -0.14920282 0.98000002 8164786
0.010211607 -0.14806819 0.98000002 10594189
-0.042548336 -0.14551531 0.98000002 15395306
-0.039995439 -0.14551531 0.98000002 6921449
-0.03744255 -0.14466433 0.98000002 12309203
-0.034605972 -0.14523165 0.98000002 4096488
-0.031485774 -0.14551531 0.98000002 7634071
0.0085096667 -0.14551531 0.98000002 4096488
0.010778921 -0.14523165 0.98000002 4096488
-0.039995439 -0.14211144 0.98000002 12703210
-0.03744255 -0.14211144 0.98000002 12111317
-0.034889624 -0.14211144 0.98000002 6127042
-0.03233676 -0.14211144 0.98000002 8224902
0.0085096667 -0.14211144 0.98000002 7113151
0.011062577 -0.14211144 0.98000002 6783928
0.013615455 -0.14211144 0.98000002 7570105
-0.039995439 -0.13955855 0.98000002 4096488
-0.03744255 -0.13955855 0.98000002 12702166
-0.034889624 -0.13955855 0.98000002 9409176
-0.03233676 -0.13955855 0.98000002 8948611
0.0085096667 -0.13955855 0.98000002 10197146
0.010211607 -0.13955855 0.98000002 9801872
-0.042548336 -0.13615468 0.98000002 15263977
-0.039711781 -0.13672198 0.98000002 7907814
-0.03744255 -0.13700563 0.98000002 12439765
-0.03488962 -0.13700563 0.98000002 4096488
0.0085096667 -0.13700563 0.98000002 4096488
0.010211607 -0.13700563 0.98000002 6981819
-0.042548336 -0.13445273 0.98000002 4096488
-0.039995439 -0.13445273 0.98000002 9812451
-0.03744255 -0.13445273 0.98000002 4096488
-0.034889624 -0.13360178 0.98000002 6589373
0.0085096667 -0.13445273 0.98000002 10000533
0.010778921 -0.13331813 0.98000002 4096488
0.013615455 -0.13360178 0.98000002 7571645
0.010778921 -0.12991427 0.98000002 6064589
0.013615455 -0.13019791 0.98000002 11244175
0.015317394 -0.12934697 0.98000002 4096488
0.011913547 -0.127645 0.98000002 4096488
0.013615455 -0.127645 0.98000002 11511436
0.015317394 -0.127645 0.98000002 12564900
0.011913547 -0.12594305 0.98000002 4096488
0.015884709 -0.12480845 0.98000002 10334150
0.011913547 -0.12168823 0.98000002 4096488
0.013615455 -0.12168823 0.98000002 10719884
0.016168363 -0.12168823 0.98000002 9087186
0.011913547 -0.11913532 0.98000002 8673377
0.013615455 -0.11828437 0.98000002 4096488
0.015317394 -0.11828437 0.98000002 8362946
0.015317394 -0.11573146 0.98000002 12562327
0.0085096667 -0.10892373 0.98000002 3080476
-0.030634789 -0.10296698 0.98000002 2573685
-0.035740577 -0.10041405 0.98000002 3287344
-0.034889624 -0.098712139 0.98000002 2759713
-0.034038667 -0.095308281 0.98000002 2497069
-0.03233676 -0.095308281 0.98000002 1510690
0.011913547 -0.085096687 0.98000002 7562308
0.011913547 -0.082543775 0.98000002 7498048
-0.0068285996 -0.17754288 0.98300004 4096488
-0.0051214173 -0.17754288 0.98300004 2699045
-0.0017071173 -0.17754288 0.98300004 3420460
-0 -0.17754288 0.98300004 4096488
-0.040117875 -0.16559292 0.98300004 14873316
0.0085357167 -0.16559292 0.98300004 4096488
0.010811917 -0.16616195 0.98300004 3027500
-0.040117875 -0.1630322 0.98300004 12375528
-0.03755717 -0.1630322 0.98300004 6657756
-0.035849985 -0.1630322 0.98300004 3496365
0.011096442 -0.16388576 0.98300004 2843288
0.013657134 -0.16217864 0.98300004 8475197
-0.040117875 -0.16047147 0.98300004 9747939
-0.03755717 -0.16047147 0.98300004 9613773
-0.034996428 -0.16047147 0.98300004 3485516
0.011096442 -0.16047147 0.98300004 8886395
0.013657134 -0.16047147 0.98300004 10049116
0.015364285 -0.16047147 0.98300004 12301715
-0.034142867 -0.15876435 0.98300004 4096488
0.0085357167 -0.15791076 0.98300004 11379316
0.011096442 -0.15791076 0.98300004 5933517
0.013657134 -0.15791076 0.98300004 7707826
0.015364285 -0.15791076 0.98300004 13353120
0.0085357167 -0.15535007 0.98300004 10126217
0.011096442 -0.15449649 0.98300004 5735890
0.013657134 -0.15364291 0.98300004 12228698
-0.042678583 -0.15022862 0.98300004 15592681
-0.034996428 -0.15022862 0.98300004 4096488
0.011096442 -0.15108219 0.98300004 7310263
0.013657134 -0.15108219 0.98300004 12098667
-0.042678583 -0.14852147 0.98300004 4096488
-0.040117875 -0.14852147 0.98300004 9811945
-0.03755717 -0.14852147 0.98300004 12702173
-0.035849985 -0.14852147 0.98300004 4096488
0.011950017 -0.14852147 0.98300004 11252637
0.013657134 -0.14852147 0.98300004 12500653
-0.03755717 -0.14681433 0.98300004 12704216
-0.035849985 -0.14681433 0.98300004 4096488
0.011950017 -0.14681433 0.98300004 4096488
0.013657134 -0.14596075 0.98300004 12365975
0.015933335 -0.142831 0.98300004 7512542
0.011950017 -0.13913219 0.98300004 6784442
0.013657134 -0.13913219 0.98300004 10977417
0.011950017 -0.1365715 0.98300004 9603983
0.013657134 -0.1365715 0.98300004 10979471
0.015364285 -0.1365715 0.98300004 12364456
0.011950017 -0.13486433 0.98300004 4096488
0.015364285 -0.13401076 0.98300004 4096488
0.011950017 -0.13145003 0.98300004 4096488
0.015364285 -0.13145003 0.98300004 12363939
-0.039264284 -0.12120719 0.98300004 4096488
-0.03755717 -0.12120719 0.98300004 4096488
-0.039264284 -0.1177929 0.98300004 15399386
-0.03755717 -0.1177929 0.98300004 4096488
0.017071433 -0.11864646 0.98300004 13878445
-0.039264284 -0.11608574 0.98300004 4096488
-0.03755717 -0.11608574 0.98300004 4096488
0.0085357167 -0.11096434 0.98300004 7433473
0.0085357167 -0.081942908 0.98300004 4096488
0.010242867 -0.081942908 0.98300004 6640700
0.0051214173 -0.080235735 0.98300004 8686463
0.0076821418 -0.080235735 0.98300004 7760487
0.010242867 -0.080235735 0.98300004 7693885
-0.0401995 -0.15908737 0.98500007 4096488
-0.037633579 -0.15908737 0.98500007 9680075
-0.035922926 -0.15908737 0.98500007 4096488
0.017106168 -0.15908737 0.98500007 14345416
-0.037633579 -0.15737674 0.98500007 9681102
-0.035067633 -0.15737674 0.98500007 4611470
0.017106168 -0.15737674 0.98500007 14738642
-0.037633579 -0.15481082 0.98500007 4096488
-0.035352733 -0.15509593 0.98500007 4096488
0.013684921 -0.15566614 0.98500007 4096488
0.016250856 -0.15481082 0.98500007 11780813
-0.035922926 -0.15224487 0.98500007 9341361
0.015965752 -0.15167467 0.98500007 10793922
0.015395544 -0.14796834 0.98500007 4096488
0.015395544 -0.14540242 0.98500007 4096488
0.015395544 -0.13941526 0.98500007 8361928
0.017106168 -0.13684936 0.98500007 14014657
-0.039464004 -0.15699816 0.98800004 4096488
-0.039464004 -0.1544244 0.98800004 15660512
-0.040321939 -0.15099277 0.98800004 15397351
-0.037748203 -0.15185066 0.98800004 4096488
0.017158266 -0.15099277 0.98800004 14607566
0.017158266 -0.14841901 0.98800004 14803661
0.017158266 -0.14241362 0.98800004 14278350
-0.043025918 -0.16005644 0.99100006 15592427
-0.043025918 -0.15747488 0.99100006 15592426
-0.041304909 -0.15747488 0.99100006 4096488
-0.043025918 -0.15317225 0.99100006 4096488
-0.040444367 -0.15317225 0.99100006 9812202
0.018931411 -0.15145124 0.99100006 15790811
0.018931411 -0.14973018 0.99100006 15791067
0.017210368 -0.14628811 0.99100006 14607049
0.018931411 -0.1445671 0.99100006 15987417
0.017210368 -0.14112502 0.99100006 14212040
0.018931411 -0.14198554 0.99100006 15790297
0.017210368 -0.13940397 0.99100006 14080450
0.018931411 -0.13940397 0.99100006 15725269
-0.043156169 -0.1553622 0.99400002 4096488
-0.041429948 -0.1553622 0.99400002 15660014
