# .PCD v0.7 - Point Cloud Data file format
VERSION 0.7
FIELDS x y z rgba
SIZE 4 4 4 4
TYPE F F F U
COUNT 1 1 1 1
WIDTH 1089
HEIGHT 1
VIEWPOINT 0 0 0 1 0 0 0
POINTS 1089
DATA ascii
-0.072297409 -0.17838606 0.90500003 4014122
-0.069901712 -0.17828794 0.90450001 3686452
-0.067507692 -0.17818981 0.90400004 3948340
-0.06508071 -0.17799184 0.90300006 3818799
-0.062205672 -0.17825322 0.90300006 4410416
-0.058872133 -0.17818895 0.90400004 4804667
-0.072297409 -0.17602856 0.90500003 3685163
-0.069863506 -0.17504907 0.90400004 3620396
-0.067433015 -0.17485543 0.90300006 4341801
-0.065864831 -0.17485543 0.90300006 3882789
-0.061160218 -0.17407131 0.90300006 4673589
-0.058872133 -0.17504907 0.90400004 4935220
-0.070150927 -0.17223392 0.90433335 3160608
-0.067433015 -0.17250311 0.90300006 4996131
-0.065864831 -0.17250311 0.90300006 3948067
-0.061944306 -0.17250311 0.90300006 4212783
-0.058632188 -0.17223392 0.90433335 5460009
-0.073083267 -0.16895597 0.90500003 3816993
-0.0695761 -0.17001449 0.90366673 3422495
-0.067433015 -0.17015079 0.90300006 3815970
-0.065864831 -0.17093489 0.90300006 3684902
-0.061682947 -0.17041217 0.90300006 4015911
-0.058872133 -0.16955337 0.90400004 4672806
-0.069862932 -0.16641319 0.90399998 3291936
-0.067433015 -0.16701438 0.90300006 3357472
-0.065864831 -0.16623028 0.90300006 3358248
-0.061944306 -0.16701438 0.90300006 3753506
-0.058872133 -0.16641349 0.90400004 4082733
-0.069939919 -0.16345505 0.90500003 3160869
-0.067433015 -0.16387793 0.90300006 3029802
-0.065342084 -0.16413932 0.90300006 3291693
-0.062205672 -0.16413932 0.90300006 3687468
-0.059069242 -0.16361657 0.90300006 3885616
-0.069939919 -0.16109754 0.90500003 3094822
-0.067433015 -0.16074152 0.90300006 3160105
-0.065342084 -0.16048016 0.90300006 3356713
-0.062728398 -0.15995741 0.90300006 3620391
-0.058840007 -0.1608301 0.90350002 3819570
-0.069939919 -0.15795419 0.90500003 2964006
-0.067433015 -0.15760511 0.90300006 3160102
-0.065342084 -0.15786648 0.90300006 3225638
-0.062728398 -0.15760511 0.90300006 3424040
-0.058872133 -0.15777965 0.90400004 2246534
-0.069939919 -0.15481082 0.90500003 3160100
-0.067433015 -0.15446869 0.90300006 3160102
-0.06508071 -0.15446869 0.90300006 1851267
-0.062205672 -0.15473007 0.90300006 2441321
-0.058872133 -0.15463975 0.90400004 1459889
-0.072297409 -0.1524533 0.90500003 3095094
-0.069901712 -0.15158322 0.90450001 1851262
-0.067433015 -0.15133226 0.90300006 607964
-0.065864831 -0.15133226 0.90300006 607964
-0.06194431 -0.15133227 0.90300006 2048389
-0.058872133 -0.15149987 0.90400004 2377094
-0.072297409 -0.14773823 0.90500003 607964
-0.069939919 -0.14852409 0.90500003 1851008
-0.067433015 -0.14819586 0.90300006 607964
-0.065864831 -0.14819586 0.90300006 607964
-0.061682947 -0.14845723 0.90300006 1524388
-0.05880788 -0.14819586 0.90300006 3032923
-0.056580577 -0.14852409 0.90500003 2246795
-0.069154091 -0.14538074 0.90500003 607964
-0.067507692 -0.14522095 0.90400004 1851006
-0.065864831 -0.14505944 0.90300006 607964
-0.061160218 -0.14505944 0.90300006 607964
-0.05880788 -0.14505944 0.90300006 2115199
-0.056580577 -0.14538074 0.90500003 607964
-0.069677979 -0.1419754 0.90500009 1393311
-0.067433015 -0.14192301 0.90300006 3095335
-0.065864831 -0.14192301 0.90300006 607964
-0.061160218 -0.14192301 0.90300006 1983362
-0.05880788 -0.14192301 0.90300006 1328558
-0.056580577 -0.14223737 0.90500003 2180995
-0.069939919 -0.13909397 0.90500003 1197231
-0.067433015 -0.13878658 0.90300006 1851265
-0.06508071 -0.13957067 0.90300006 3029548
-0.061944306 -0.13957067 0.90300006 607964
-0.058840007 -0.13886386 0.90350002 2049412
-0.056580577 -0.13909397 0.90500003 2115462
-0.072297409 -0.13673644 0.90500003 3094823
-0.070150927 -0.13611183 0.90433335 1458590
-0.067433015 -0.13643426 0.90300006 3225375
-0.058872133 -0.13658535 0.90400004 2180486
-0.056580577 -0.13516477 0.90500003 607964
-0.069863506 -0.13344461 0.90400004 1196974
-0.067433015 -0.13486606 0.90300006 607964
-0.065864831 -0.13408196 0.90300006 607964
-0.05880788 -0.13408196 0.90300006 1328558
-0.056580577 -0.13280724 0.90500003 2180738
-0.0695761 -0.13078028 0.90366673 1393053
-0.065342084 -0.13068418 0.90300006 1392793
-0.058546513 -0.13068418 0.90300006 607964
-0.056580577 -0.13044971 0.90500003 607964
-0.069863506 -0.12795065 0.90400004 1851264
-0.067433015 -0.12702501 0.90300006 3094300
-0.06508071 -0.12780912 0.90300006 1196714
-0.061944306 -0.12702501 0.90300006 3161124
-0.05880788 -0.12780912 0.90300006 1328816
-0.056580577 -0.1280922 0.90500003 2115206
-0.069627039 -0.12511817 0.90433335 607964
-0.067433015 -0.1246727 0.90300006 607964
-0.065342084 -0.12441133 0.90300006 2244184
-0.05880788 -0.1246727 0.90300006 1328304
-0.056580577 -0.12494883 0.90500003 2246281
-0.069154091 -0.12180547 0.90500003 1785469
-0.067507692 -0.12167001 0.90400004 1785722
-0.06508071 -0.12153628 0.90300006 1196715
-0.06194431 -0.12153628 0.90300006 1851263
-0.05880788 -0.12153628 0.90300006 1262768
-0.056580577 -0.12180547 0.90500003 2114952
-0.067058489 -0.11840016 0.90500009 1393052
-0.064819336 -0.11866124 0.90300006 1393053
-0.061944306 -0.11839987 0.90300006 1196974
-0.05880788 -0.11839987 0.90300006 1262767
-0.056580577 -0.1186621 0.90500003 607964
-0.066534601 -0.11578067 0.90500009 1393050
-0.064438991 -0.11551872 0.90500003 607964
-0.061978169 -0.11532682 0.90350008 1196973
-0.058840875 -0.11532682 0.90350002 1852292
-0.056580577 -0.11551872 0.90500003 607964
-0.066534601 -0.1126373 0.90500009 607964
-0.064438991 -0.11237536 0.90500003 607964
-0.062012911 -0.11225205 0.90400004 1785976
-0.058840871 -0.11218952 0.90350008 1852287
-0.056580577 -0.11237536 0.90500003 1918079
-0.066534601 -0.10897005 0.90500009 1327514
-0.064438991 -0.10923199 0.90500003 1785463
-0.061979044 -0.10905138 0.90350008 1196712
-0.058840875 -0.10905138 0.90350002 1196972
-0.056580577 -0.10923199 0.90500003 607964
-0.066534601 -0.10582669 0.90500009 1981782
-0.064367786 -0.10597228 0.90400004 1589366
-0.061944306 -0.10585418 0.90300006 1131178
-0.058840007 -0.10591237 0.90350008 1262768
-0.056580577 -0.10608863 0.90500003 607964
-0.066534601 -0.1032072 0.90500009 1261978
-0.064438991 -0.10294526 0.90500003 1654394
-0.061944306 -0.10350185 0.90300006 607964
-0.058632188 -0.10313079 0.90433335 1655714
-0.056580577 -0.10294526 0.90500003 2114442
-0.069154091 -0.09901607 0.90500003 607964
-0.067058489 -0.10006385 0.90500009 2046813
-0.064438991 -0.10058773 0.90500003 607964
-0.061944306 -0.10114955 0.90300006 1262253
-0.058872133 -0.10047572 0.90400004 1982850
-0.056580577 -0.099801898 0.90500003 607964
-0.069154091 -0.097444363 0.90500003 3028253
-0.067582369 -0.097444363 0.90500003 2896921
-0.06508071 -0.098013133 0.90300006 1719674
-0.06194431 -0.098013133 0.90300006 607964
-0.059069242 -0.097751759 0.90300006 1524128
-0.056580577 -0.097444363 0.90500003 607964
-0.069154091 -0.095872708 0.90500003 607964
-0.067058489 -0.09482491 0.90500009 607964
-0.064819336 -0.095138095 0.90300006 1393049
-0.06194431 -0.094876722 0.90300006 607964
-0.058872133 -0.094981782 0.90400004 1328047
-0.056580577 -0.095086858 0.90500003 1983106
-0.069154091 -0.091943473 0.90500003 1719681
-0.066796541 -0.091943465 0.90500003 1719432
-0.064296588 -0.09174028 0.90300006 1719682
-0.061978169 -0.091790639 0.90350008 1719678
-0.058905128 -0.091892242 0.90450001 1851771
-0.056580577 -0.091943473 0.90500003 607964
-0.069154091 -0.089585938 0.90500003 2766362
-0.066796541 -0.089585938 0.90500003 607964
-0.064438991 -0.08880011 0.90500003 1785210
-0.062081505 -0.08880011 0.90500003 607964
-0.058938127 -0.08880011 0.90500003 1851775
-0.056580577 -0.089585938 0.90500003 607964
-0.064438991 -0.08565674 0.90500003 607964
-0.062081508 -0.08565674 0.90500003 1654133
-0.058938123 -0.08565674 0.90500003 1262765
-0.056580577 -0.08565674 0.90500003 1983358
-0.066010714 -0.083299205 0.90500003 607964
-0.064438991 -0.082513377 0.90500003 1785465
-0.062081505 -0.082513377 0.90500003 1065645
-0.058906 -0.082468227 0.90450001 1196974
-0.055794746 -0.082513377 0.90500003 1852286
-0.062081505 -0.079370014 0.90500003 1131181
-0.058873869 -0.079282314 0.90400004 607964
-0.056455538 -0.079194613 0.90300006 1983358
-0.062081505 -0.076226652 0.90500003 1196715
-0.058905996 -0.076184973 0.90450007 607964
-0.056015011 -0.076431863 0.90433335 1590177
-0.066010714 -0.073869117 0.90500003 607964
-0.064438991 -0.073869117 0.90500003 607964
-0.062081505 -0.073083289 0.90500003 1131179
-0.058906 -0.073043339 0.90450001 1262765
-0.056056689 -0.072821349 0.90500009 1590174
-0.062081505 -0.069939896 0.90500003 607964
-0.058938127 -0.069939896 0.90500003 1196714
-0.056580577 -0.069939896 0.90500003 2310797
-0.062081508 -0.066796534 0.90500003 1784438
-0.058938127 -0.066796534 0.90500003 2178679
-0.056580577 -0.067582384 0.90500003 607964
-0.061295677 -0.064439021 0.90500003 3222833
-0.064438991 -0.058152296 0.90500003 607964
-0.062081508 -0.058152296 0.90500003 607964
-0.058938123 -0.058152296 0.90500003 607964
-0.066010714 -0.055794761 0.90500003 607964
-0.064438991 -0.055794761 0.90500003 2444158
-0.062081508 -0.055794761 0.90500003 607964
-0.058938127 -0.055794761 0.90500003 1916536
-0.056580577 -0.055794761 0.90500003 1851780
-0.066010714 -0.053437229 0.90500003 607964
-0.064438991 -0.052651398 0.90500003 607964
-0.062081508 -0.052651402 0.90500003 607964
-0.058938127 -0.052651402 0.90500003 2376571
-0.056580577 -0.052651398 0.90500003 2311049
-0.062081508 -0.049508035 0.90500003 1851263
-0.058938127 -0.049508035 0.90500003 3033739
-0.056580577 -0.049508035 0.90500003 607964
-0.061819565 -0.046626598 0.90500009 1327006
-0.058938123 -0.04636465 0.90500003 1524143
-0.055794746 -0.04636465 0.90500003 4344674
-0.061819565 -0.043483239 0.90500009 607964
-0.058938127 -0.043221287 0.90500003 607964
-0.055794746 -0.043221287 0.90500003 607964
-0.061295677 -0.040077925 0.90500003 1653375
-0.058938127 -0.040077925 0.90500003 1065392
-0.055794746 -0.040077921 0.90500003 607964
-0.058938123 -0.036934558 0.90500003 3097481
-0.062081508 -0.033005342 0.90500003 5588523
-0.059200071 -0.033529244 0.90500009 5068135
-0.062081508 -0.031433683 0.90500003 607964
-0.058938123 -0.031433683 0.90500003 607964
-0.062343448 -0.028814204 0.90500009 2443925
-0.059723955 -0.029076148 0.90500003 4018055
-0.056580577 -0.018860182 0.90500003 607964
-0.061295677 -0.015716819 0.90500003 607964
-0.058938123 -0.016502671 0.90500003 3820164
-0.056056689 -0.016240722 0.90500009 2836902
-0.061819565 -0.013097357 0.90500009 2771869
-0.058938123 -0.013359307 0.90500003 2246831
-0.056580577 -0.013359307 0.90500003 607964
-0.058152296 -0.010215944 0.90500003 4018053
-0.056580577 -0.0094300909 0.90500003 7625782
-0.078844666 -0.18291964 0.90800005 3291949
-0.076479331 -0.18213117 0.90800005 3423529
-0.074114002 -0.18213117 0.90800005 3816742
-0.055979703 -0.18213117 0.90800005 4608317
-0.053614397 -0.18291964 0.90800005 4279861
-0.076479331 -0.1789774 0.90800005 3751210
-0.074114002 -0.1789774 0.90800005 4406058
-0.055979703 -0.1789774 0.90800005 5263684
-0.075690866 -0.1758236 0.90800005 3620416
-0.073588364 -0.1755608 0.90800011 3619889
-0.055979703 -0.17582361 0.90800005 4608826
-0.075690866 -0.17266983 0.90800005 3685914
-0.073325537 -0.17266984 0.90800005 3489052
-0.055979703 -0.17266984 0.90800005 5264951
-0.075690866 -0.16951604 0.90800005 3685148
-0.056242518 -0.16977887 0.90800011 4935731
-0.075690866 -0.16636226 0.90800005 3160860
-0.073325537 -0.16636227 0.90800005 3291937
-0.056768138 -0.16636226 0.90800005 4148277
-0.075690866 -0.16320845 0.90800005 3291934
-0.073325537 -0.16320845 0.90800005 3226144
-0.056768138 -0.16320845 0.90800005 4016707
-0.073325537 -0.16005468 0.90800005 3160613
-0.056768138 -0.16005468 0.90800005 2312078
-0.073325537 -0.15690088 0.90800005 3160613
-0.056768138 -0.15690088 0.90800005 607964
-0.073325537 -0.15453555 0.90800005 3291434
-0.056768138 -0.15453555 0.90800005 3884852
-0.073588364 -0.15190738 0.90800011 3029546
-0.056768138 -0.15217021 0.90800005 4147000
-0.073588364 -0.14927927 0.90800011 607964
-0.055191267 -0.14901644 0.90800005 607964
-0.073325537 -0.14586264 0.90800005 1916806
-0.070960201 -0.14586264 0.90800005 607964
-0.055191267 -0.1466511 0.90800005 3885613
-0.073325537 -0.14270887 0.90800005 1786243
-0.070960201 -0.14349732 0.90800005 2897705
-0.055191267 -0.14270887 0.90800005 2246788
-0.073325537 -0.13955507 0.90800005 1196973
-0.055191267 -0.13955507 0.90800005 2180999
-0.075690866 -0.1371897 0.90800005 607964
-0.073588364 -0.13613847 0.90800011 1393310
-0.055979703 -0.13640127 0.90800005 607964
-0.073325537 -0.13324749 0.90800005 1196975
-0.055191267 -0.13324749 0.90800005 2115201
-0.073325537 -0.13009371 0.90800005 1851268
-0.055191267 -0.13009369 0.90800005 2115206
-0.072537072 -0.12693992 0.90800005 607964
-0.055191267 -0.12693992 0.90800005 607964
-0.072537072 -0.12457456 0.90800005 3028265
-0.070960201 -0.12457456 0.90800005 3028514
-0.055191267 -0.12457456 0.90800005 607964
-0.073062718 -0.12194644 0.90800011 2178152
-0.070960201 -0.12220925 0.90800005 1719938
-0.055191267 -0.12220925 0.90800005 2114950
-0.073062718 -0.11931828 0.90800011 607964
-0.070171773 -0.11905546 0.90800005 607964
-0.055191267 -0.11905546 0.90800005 2049415
-0.072537072 -0.11590166 0.90800005 1785470
-0.070171766 -0.11590166 0.90800005 1785468
-0.0678064 -0.11511322 0.90800005 2963481
-0.055191267 -0.11590166 0.90800005 2049156
-0.072537072 -0.11274787 0.90800005 607964
-0.070171773 -0.11274787 0.90800005 607964
-0.0678064 -0.11195944 0.90800005 2962970
-0.055191267 -0.11274787 0.90800005 3359524
-0.053614397 -0.11195944 0.90800005 607964
-0.070171773 -0.10959409 0.90800005 1720188
-0.0678064 -0.11038252 0.90800005 607964
-0.055191267 -0.10959409 0.90800005 607964
-0.053614397 -0.10959409 0.90800005 1983361
-0.069908962 -0.10617749 0.90800011 1327515
-0.0678064 -0.10722873 0.90800005 607964
-0.055191267 -0.10644031 0.90800005 1983367
-0.053088754 -0.10617749 0.90800011 2441829
-0.069383338 -0.10328652 0.90800005 1719931
-0.0678064 -0.10249808 0.90800005 607964
-0.055191267 -0.10328652 0.90800005 2049158
-0.053088754 -0.10354933 0.90800011 607964
-0.070171773 -0.10013273 0.90800005 1719932
-0.055191267 -0.10013273 0.90800005 2049152
-0.053614397 -0.10013273 0.90800005 1983615
-0.072537072 -0.09619052 0.90800005 607964
-0.070960201 -0.096978948 0.90800005 1850750
-0.055191267 -0.096978948 0.90800005 1983362
-0.053614397 -0.096978948 0.90800005 607964
-0.072537072 -0.093036689 0.90800005 607964
-0.070434585 -0.094087973 0.90800011 1327261
-0.055191267 -0.093825147 0.90800005 1983358
-0.053614397 -0.093825147 0.90800005 607964
-0.072537072 -0.091459818 0.90800005 607964
-0.070960201 -0.091459818 0.90800005 607964
-0.055191267 -0.091459818 0.90800005 3620899
-0.053614397 -0.091459818 0.90800005 607964
-0.073325537 -0.08988291 0.90800005 607964
-0.070434585 -0.088831663 0.90800011 2047069
-0.067017972 -0.088306032 0.90800005 2896673
-0.055716895 -0.088831663 0.90800011 1524895
-0.053088754 -0.088831663 0.90800011 1393820
-0.069383338 -0.085940689 0.90800005 1654906
-0.067017972 -0.085940689 0.90800005 1785465
-0.055191267 -0.085940689 0.90800005 1787006
-0.053614397 -0.085940689 0.90800005 1852542
-0.069383338 -0.082786903 0.90800005 1588854
-0.067280784 -0.082524091 0.90800011 607964
-0.053614397 -0.082786903 0.90800005 607964
-0.067017972 -0.079633117 0.90800005 1131181
-0.064652607 -0.079633117 0.90800005 1720192
-0.055191267 -0.079633117 0.90800005 607964
-0.053614397 -0.080421552 0.90800005 607964
-0.067017972 -0.076479331 0.90800005 1131185
-0.064652607 -0.076479331 0.90800005 1719676
-0.055191267 -0.075690895 0.90800005 3554863
-0.053614397 -0.077267773 0.90800005 3817269
-0.069383338 -0.074113987 0.90800005 2831891
-0.067280784 -0.07306274 0.90800011 2112089
-0.064652607 -0.072537109 0.90800005 2897178
-0.055191267 -0.074113987 0.90800005 607964
-0.053614397 -0.072537109 0.90800005 607964
-0.067017972 -0.070171744 0.90800005 1130668
-0.064652607 -0.070171744 0.90800005 607964
-0.055191267 -0.070171744 0.90800005 2772885
-0.053614397 -0.070960201 0.90800005 607964
-0.067017965 -0.067017958 0.90800005 1588348
-0.064652607 -0.067017958 0.90800005 607964
-0.055716895 -0.066755138 0.90800011 3755384
-0.067017972 -0.063864179 0.90800005 607964
-0.063864172 -0.063864179 0.90800005 1719169
-0.061498865 -0.063075721 0.90800005 607964
-0.0591335 -0.063864179 0.90800005 3229574
-0.055979703 -0.063864179 0.90800005 2442895
-0.067017972 -0.061498851 0.90800005 1718911
-0.063864172 -0.061498851 0.90800005 2113413
-0.061498865 -0.061498851 0.90800005 607964
-0.0591335 -0.061498851 0.90800005 607964
-0.055979703 -0.061498851 0.90800005 1916552
-0.069383338 -0.059921935 0.90800005 607964
-0.067017972 -0.0591335 0.90800005 1981316
-0.063864172 -0.059921935 0.90800005 607964
-0.061498865 -0.059921935 0.90800005 4474659
-0.0591335 -0.059921935 0.90800005 4278566
-0.055979703 -0.0591335 0.90800005 1983365
-0.0678064 -0.055979718 0.90800005 607964
-0.055191267 -0.055979718 0.90800005 1917571
-0.066229537 -0.0520375 0.90800005 607964
-0.055191267 -0.052825935 0.90800005 2179976
-0.066229537 -0.049672149 0.90800005 2048121
-0.064652607 -0.049672149 0.90800005 607964
-0.055191267 -0.049672149 0.90800005 607964
-0.066229537 -0.046518344 0.90800005 1850483
-0.064126983 -0.046255525 0.90800011 607964
-0.067017972 -0.044153016 0.90800005 607964
-0.064126983 -0.043101739 0.90800011 607964
-0.063864172 -0.040210776 0.90800005 607964
-0.053614397 -0.040210776 0.90800005 4545179
-0.063864172 -0.03705699 0.90800005 1262255
-0.061498865 -0.03705699 0.90800005 1587333
-0.055979703 -0.03705699 0.90800005 2511024
-0.053614397 -0.03705699 0.90800005 4544644
-0.064126983 -0.034166031 0.90800011 1917606
-0.061498865 -0.034691669 0.90800005 607964
-0.058345068 -0.034691669 0.90800005 607964
-0.055979703 -0.033903211 0.90800005 2378932
-0.064652607 -0.031537883 0.90800005 607964
-0.055979703 -0.031537883 0.90800005 607964
-0.066229537 -0.029172532 0.90800005 2571653
-0.064652607 -0.029172532 0.90800005 2902651
-0.061498865 -0.029960968 0.90800005 607964
-0.058345068 -0.029172532 0.90800005 4083591
-0.055979703 -0.029172534 0.90800005 607964
-0.063864172 -0.02601875 0.90800005 2181553
-0.061498865 -0.02601875 0.90800005 607964
-0.0591335 -0.026018748 0.90800005 2049967
-0.055979703 -0.02601875 0.90800005 2180279
-0.053614397 -0.025230315 0.90800005 607964
-0.063864172 -0.022864943 0.90800005 3755148
-0.061498865 -0.022864943 0.90800005 3754122
-0.0591335 -0.022864943 0.90800005 2049456
-0.055979703 -0.022864943 0.90800005 607964
-0.053614397 -0.022864943 0.90800005 607964
-0.063864172 -0.019711159 0.90800005 607964
-0.061498865 -0.019711159 0.90800005 607964
-0.059133504 -0.019711159 0.90800005 607964
-0.055716895 -0.019973978 0.90800011 4804200
-0.053614397 -0.019711159 0.90800005 3753863
-0.063864172 -0.016557377 0.90800005 3689861
-0.061498865 -0.017345835 0.90800005 6770473
-0.055191267 -0.017345835 0.90800005 607964
-0.053614397 -0.016557377 0.90800005 607964
-0.066229537 -0.012615135 0.90800005 607964
-0.064126983 -0.013666412 0.90800011 607964
-0.055191267 -0.013403593 0.90800005 3556744
-0.053614397 -0.013403593 0.90800005 3751300
-0.063864172 -0.010249808 0.90800005 2244229
-0.061498865 -0.010249808 0.90800005 607964
-0.059921935 -0.010249808 0.90800005 607964
-0.055716895 -0.010512628 0.90800011 2969256
-0.053614397 -0.010249808 0.90800005 607964
-0.06360136 -0.0073588444 0.90800011 1982110
-0.061498865 -0.0070960247 0.90800005 2834821
-0.0591335 -0.0070960247 0.90800005 3885962
-0.055979703 -0.0070960252 0.90800005 2444208
-0.053614397 -0.0070960247 0.90800005 607964
-0.063075736 -0.003942241 0.90800005 607964
-0.061498865 -0.003942241 0.90800005 607964
-0.0591335 -0.003942241 0.90800005 607964
-0.055979703 -0.003942241 0.90800005 607964
-0.053614397 -0.003942241 0.90800005 4412818
-0.063075736 -0.0015769143 0.90800005 4276747
-0.061498865 -0.0015769143 0.90800005 4339998
-0.0591335 -0.0015769143 0.90800005 5914668
-0.055979703 -0.0015769143 0.90800005 4412301
-0.053614397 -0.0015769143 0.90800005 8152159
-0.063075736 0.00078844593 0.90800005 2375809
-0.061498865 0.00078844593 0.90800005 2507647
-0.0591335 0.00078844593 0.90800005 2637952
-0.055979703 0.00078844593 0.90800005 4017546
-0.053614397 0.00078844593 0.90800005 4412823
-0.063864172 0.0031537837 0.90800005 2243711
-0.061498865 0.0039422298 0.90800005 607964
-0.0591335 0.0039422298 0.90800005 607964
-0.055979703 0.0039422298 0.90800005 3227261
-0.053614397 0.0039422298 0.90800005 4281221
-0.061498865 0.0063075675 0.90800005 607964
-0.0591335 0.0070960135 0.90800005 2179706
-0.055979703 0.0070960135 0.90800005 3359362
-0.055716895 0.0099869817 0.90800011 2900837
-0.0591335 0.013403604 0.90800005 2178431
-0.055979703 0.013403604 0.90800005 1722288
-0.061498865 0.017345835 0.90800005 607964
-0.0591335 0.016557388 0.90800005 1784694
-0.055979703 0.016557388 0.90800005 2902405
-0.0591335 0.01971117 0.90800005 607964
-0.055979703 0.01971117 0.90800005 607964
-0.059133504 0.022864955 0.90800005 1653375
-0.055979703 0.022864955 0.90800005 2375554
-0.0591335 0.026018737 0.90800005 1588092
-0.055979703 0.026018737 0.90800005 1785475
-0.053614397 0.025230292 0.90800005 4604463
-0.0591335 0.029172521 0.90800005 1653885
-0.055979703 0.029172521 0.90800005 1851264
-0.0591335 0.031537861 0.90800005 607964
-0.055979703 0.031537861 0.90800005 607964
-0.0591335 0.03311475 0.90800005 607964
-0.056768138 0.03311475 0.90800005 607964
-0.05215209 -0.18332255 0.91000003 4475959
-0.079808503 -0.18095198 0.91000003 3357993
-0.052942291 -0.18095198 0.91000003 4935481
-0.07901834 -0.17779125 0.91000003 3685929
-0.077437989 -0.17700107 0.91000003 3554866
-0.053732492 -0.17779125 0.91000003 4673854
-0.07901834 -0.17542069 0.91000003 3555630
-0.077437989 -0.17542069 0.91000003 3621434
-0.053732492 -0.17542069 0.91000003 4805438
-0.07901834 -0.17305017 0.91000003 3423013
-0.077437989 -0.17305017 0.91000003 3685408
-0.053732492 -0.17305017 0.91000003 5134156
-0.07901834 -0.16909924 0.91000003 3357990
-0.077437989 -0.16988942 0.91000003 3423776
-0.055312835 -0.16909924 0.91000003 4803891
-0.053732492 -0.17067961 0.91000003 5265219
-0.07901834 -0.1675189 0.91000003 3226402
-0.077437989 -0.16672871 0.91000003 3029790
-0.055312835 -0.16672871 0.91000003 4279600
-0.077437989 -0.16435811 0.91000003 3291933
-0.055312835 -0.16356795 0.91000003 4082222
-0.076647788 -0.16040722 0.91000003 3226149
-0.055312835 -0.16040722 0.91000003 607964
-0.052678894 -0.16014382 0.91000003 607964
-0.076384395 -0.15750989 0.91000003 3225890
-0.055312835 -0.15724649 0.91000003 607964
-0.052942291 -0.15724649 0.91000003 2247045
-0.075857595 -0.15408576 0.91000003 3160352
-0.055312835 -0.15408576 0.91000003 2181255
-0.052942291 -0.15408576 0.91000003 3033436
-0.075857595 -0.15092503 0.91000003 3095315
-0.055312835 -0.1517152 0.91000003 607964
-0.052942291 -0.15092503 0.91000003 3097948
-0.076647788 -0.14855446 0.91000003 1785983
-0.052942291 -0.14855446 0.91000003 607964
-0.076647788 -0.14618394 0.91000003 1262515
-0.055312835 -0.14539373 0.91000003 607964
-0.053732492 -0.14618394 0.91000003 2180998
-0.076647788 -0.14302319 0.91000003 1262254
-0.052942291 -0.14302319 0.91000003 1394352
-0.076647796 -0.13986245 0.91000003 1785721
-0.053732492 -0.13986245 0.91000003 2181000
-0.076911196 -0.13643831 0.91000003 607964
-0.055312835 -0.13749188 0.91000003 3884087
-0.053205691 -0.13643833 0.91000003 2770532
-0.076647788 -0.13354099 0.91000003 1196464
-0.052942291 -0.13354099 0.91000003 2901581
-0.050571747 -0.13275081 0.91000003 3622442
-0.076384395 -0.13064365 0.91000003 1393317
-0.052942291 -0.13038026 0.91000003 2836057
-0.075857595 -0.12721953 0.91000003 607964
-0.074277245 -0.12721953 0.91000003 1916802
-0.052942291 -0.12721953 0.91000003 2639707
-0.075857595 -0.1240588 0.91000003 607964
-0.074277245 -0.1240588 0.91000003 607964
-0.052942291 -0.1240588 0.91000003 607964
-0.076384395 -0.12116146 0.91000003 607964
-0.052942291 -0.12089806 0.91000003 2114691
-0.075857595 -0.1185275 0.91000003 607964
-0.074277245 -0.1185275 0.91000003 3028762
-0.052942291 -0.1185275 0.91000003 2049157
-0.075857595 -0.11615695 0.91000003 607964
-0.074277245 -0.11615695 0.91000003 1654404
-0.052942291 -0.11615695 0.91000003 1328559
-0.050571747 -0.11536677 0.91000003 607964
-0.075857595 -0.11299621 0.91000003 1719934
-0.074277245 -0.11299621 0.91000003 607964
-0.052678894 -0.11325961 0.91000003 1721503
-0.050571747 -0.11220604 0.91000003 3555618
-0.073487043 -0.10983548 0.91000003 1851006
-0.05215209 -0.10983548 0.91000003 607964
-0.050571747 -0.10983548 0.91000003 3359271
-0.075857595 -0.10588458 0.91000003 2766882
-0.073223643 -0.10641136 0.91000003 1327517
-0.071116507 -0.10746492 0.91000003 2701086
-0.05215209 -0.10746492 0.91000003 607964
-0.050571747 -0.10667475 0.91000003 3359011
-0.073487043 -0.10351402 0.91000003 1719934
-0.071116507 -0.10351402 0.91000003 1785469
-0.05215209 -0.10272385 0.91000003 3490840
-0.050571747 -0.10351402 0.91000003 1983604
-0.075857595 -0.10035329 0.91000003 1719934
-0.073487043 -0.10035329 0.91000003 1131182
-0.071116507 -0.10114346 0.91000003 607964
-0.05215209 -0.10035329 0.91000003 1983614
-0.050571747 -0.10035329 0.91000003 607964
-0.075857595 -0.097192563 0.91000003 1785471
-0.073750451 -0.097455963 0.91000003 607964
-0.05215209 -0.097192563 0.91000003 607964
-0.050571747 -0.097192563 0.91000003 1918332
-0.073750451 -0.094295204 0.91000003 2046808
-0.05215209 -0.094031811 0.91000003 607964
-0.050571747 -0.094031811 0.91000003 1918075
-0.074277245 -0.091661274 0.91000003 2963479
-0.05215209 -0.090871081 0.91000003 607964
-0.050571747 -0.090871081 0.91000003 2048893
-0.072696842 -0.088500537 0.91000003 607964
-0.050571747 -0.088500537 0.91000003 3161114
-0.072696842 -0.086129978 0.91000003 607964
-0.071116507 -0.086129978 0.91000003 1523580
-0.05215209 -0.086129978 0.91000003 1917566
-0.049781542 -0.086129986 0.91000003 607964
-0.072696842 -0.082969256 0.91000003 607964
-0.071116507 -0.082969256 0.91000003 1588859
-0.05215209 -0.082969256 0.91000003 607964
-0.050571747 -0.082969256 0.91000003 3619631
-0.070062935 -0.080071911 0.91000003 1261982
-0.052678894 -0.079545133 0.91000003 1458594
-0.050571747 -0.08059869 0.91000003 607964
-0.072696842 -0.076647788 0.91000003 607964
-0.070326328 -0.076647796 0.91000003 1654395
-0.052678894 -0.07638441 0.91000003 1721252
-0.073487043 -0.07427723 0.91000003 607964
-0.070589721 -0.073223673 0.91000003 1261979
-0.052678894 -0.073750451 0.91000003 3820653
-0.070326328 -0.070326313 0.91000003 1588604
-0.052678894 -0.07006292 0.91000003 607964
-0.070326328 -0.067165576 0.91000003 1523066
-0.052942291 -0.067165576 0.91000003 2705294
-0.070326328 -0.064004846 0.91000003 999852
-0.052942291 -0.064004846 0.91000003 3360649
-0.070589721 -0.061107516 0.91000003 1261213
-0.052942291 -0.060844116 0.91000003 607964
-0.070326328 -0.058473583 0.91000003 1522814
-0.052942291 -0.058473583 0.91000003 2967430
-0.050571747 -0.058473583 0.91000003 5392694
-0.070062935 -0.056366414 0.91000003 1980515
-0.052942291 -0.056103021 0.91000003 2245252
-0.050571747 -0.056893192 0.91000003 4932663
-0.069536157 -0.052942291 0.91000003 607964
-0.067955762 -0.052942291 0.91000003 2376831
-0.052942291 -0.052942291 0.91000003 607964
-0.069536157 -0.049781561 0.91000003 2506637
-0.067955762 -0.049781561 0.91000003 2834563
-0.052942291 -0.049781557 0.91000003 1917834
-0.069536157 -0.046620809 0.91000003 607964
-0.067955762 -0.046620809 0.91000003 2112636
-0.052942291 -0.046620809 0.91000003 3295372
-0.069536157 -0.043460075 0.91000003 607964
-0.067165583 -0.042669881 0.91000003 3160355
-0.052942291 -0.043460075 0.91000003 2576053
-0.069536157 -0.040299349 0.91000003 2638461
-0.067165583 -0.040299349 0.91000003 607964
-0.05215209 -0.040299349 0.91000003 4610701
-0.069536157 -0.036348421 0.91000003 607964
-0.067165583 -0.037138619 0.91000003 1787827
-0.05215209 -0.037138619 0.91000003 4609915
-0.067165583 -0.033977885 0.91000003 607964
-0.052942291 -0.033977885 0.91000003 607964
-0.067428976 -0.031080555 0.91000003 1654686
-0.052942291 -0.030817155 0.91000003 3424910
-0.067955762 -0.028446618 0.91000003 3489304
-0.052942291 -0.028446618 0.91000003 7425852
-0.067165583 -0.02607606 0.91000003 1853099
-0.052678894 -0.026339453 0.91000003 2704800
-0.067165583 -0.022915307 0.91000003 3229823
-0.05215209 -0.022915307 0.91000003 607964
-0.067165583 -0.019754577 0.91000003 607964
-0.05215209 -0.019754577 0.91000003 3687310
-0.050571747 -0.019754577 0.91000003 3884437
-0.067165583 -0.016593846 0.91000003 2769034
-0.05215209 -0.016593846 0.91000003 3753622
-0.050571747 -0.016593846 0.91000003 607964
-0.069536157 -0.012642922 0.91000003 607964
-0.067428976 -0.013696514 0.91000003 3226467
-0.05215209 -0.013433116 0.91000003 7293236
-0.067165583 -0.010272385 0.91000003 1459118
-0.05215209 -0.010272386 0.91000003 4347281
-0.066375412 -0.0071116546 0.91000003 607964
-0.06479501 -0.0063214609 0.91000003 607964
-0.05215209 -0.0071116546 0.91000003 607964
-0.066375412 -0.0039509246 0.91000003 607964
-0.06479501 -0.0039509246 0.91000003 607964
-0.05215209 -0.0047411183 0.91000003 8349492
-0.066375412 -0.0015803878 0.91000003 3683358
-0.06479501 -0.0015803878 0.91000003 607964
-0.066375412 0.00079018262 0.91000003 1849981
-0.06479501 0.00079018262 0.91000003 2243199
-0.05215209 0.00079018262 0.91000003 607964
-0.06690219 0.0036875191 0.91000003 1129881
-0.064004838 0.0047410959 0.91000003 607964
-0.05215209 0.0039509134 0.91000003 607964
-0.066375412 0.0071116434 0.91000003 1653363
-0.064004838 0.0071116434 0.91000003 1981305
-0.061634324 0.0079018259 0.91000003 607964
-0.052942291 0.0071116434 0.91000003 4215433
-0.064004838 0.010272374 0.91000003 1784694
-0.060844123 0.010272374 0.91000003 2375544
-0.058473583 0.010272374 0.91000003 2638974
-0.056893177 0.011062557 0.91000003 4343078
-0.052942291 0.010272374 0.91000003 3952773
-0.064004838 0.013433127 0.91000003 1653366
-0.061634324 0.013433127 0.91000003 1849978
-0.053205691 0.013169734 0.91000003 4868199
-0.064004838 0.016593857 0.91000003 1065129
-0.061634324 0.015803674 0.91000003 607964
-0.053732492 0.016593857 0.91000003 607964
-0.063214667 0.019754589 0.91000003 2568466
-0.061634324 0.019754589 0.91000003 1653621
-0.053732492 0.019754589 0.91000003 607964
-0.063741446 0.022651924 0.91000003 2240543
-0.061634324 0.022915319 0.91000003 1588349
-0.053732492 0.022915319 0.91000003 607964
-0.066375412 0.026866231 0.91000003 607964
-0.063741446 0.026339442 0.91000003 2436880
-0.061634324 0.026076049 0.91000003 1522550
-0.053732492 0.026866231 0.91000003 607964
-0.067165583 0.028446596 0.91000003 607964
-0.064004838 0.028446596 0.91000003 607964
-0.061634324 0.028446596 0.91000003 607964
-0.053732492 0.028446596 0.91000003 607964
-0.064004838 0.030817144 0.91000003 2045255
-0.061634324 0.030817144 0.91000003 607964
-0.053732492 0.030817144 0.91000003 2178942
-0.066375412 0.034768056 0.91000003 2371872
-0.064004838 0.033977874 0.91000003 1522557
-0.061107527 0.03424127 0.91000003 1980249
-0.058473583 0.034768056 0.91000003 607964
-0.055839621 0.03424127 0.91000003 2178150
-0.053732492 0.033187691 0.91000003 607964
-0.058473583 0.036348443 0.91000003 607964
-0.056893177 0.036348443 0.91000003 607964
-0.064004838 0.043460086 0.91000003 607964
-0.061107527 0.043723479 0.91000003 3555954
-0.058473583 0.044250268 0.91000003 607964
-0.082450002 -0.18154854 0.91300005 3161380
-0.050738465 -0.18154854 0.91300005 4934964
-0.082450002 -0.17837739 0.91300005 3620399
-0.080864392 -0.17837739 0.91300005 3817516
-0.052324019 -0.17837739 0.91300005 4804918
-0.050738465 -0.17837739 0.91300005 4935982
-0.082450002 -0.17520623 0.91300005 3424562
-0.080864392 -0.17520623 0.91300005 3292974
-0.052324019 -0.17520623 0.91300005 5002557
-0.050738465 -0.17520623 0.91300005 4543543
-0.080335878 -0.17177081 0.91300005 3357987
-0.052324019 -0.17203507 0.91300005 5264708
-0.050738465 -0.17282785 0.91300005 4740163
-0.082450002 -0.16886392 0.91300005 3357226
-0.080864392 -0.16886392 0.91300005 3422759
-0.053116828 -0.16886392 0.91300005 4541745
-0.080071613 -0.16648556 0.91300005 3291424
-0.053116828 -0.16648556 0.91300005 4017196
-0.080071613 -0.16410717 0.91300005 3225888
-0.077693284 -0.1633144 0.91300005 3291935
-0.053116828 -0.16410717 0.91300005 3754527
-0.080071613 -0.16093603 0.91300005 3160612
-0.053909633 -0.16172881 0.91300005 4146725
-0.050738465 -0.16014326 0.91300005 4082225
-0.079278834 -0.15776488 0.91300005 3094821
-0.077693284 -0.1569721 0.91300005 3225378
-0.050738465 -0.15776488 0.91300005 2312582
-0.079278834 -0.15459374 0.91300005 3160354
-0.077693284 -0.15459374 0.91300005 3160353
-0.050738465 -0.15459374 0.91300005 4081707
-0.079278834 -0.1506298 0.91300005 3095065
-0.077693284 -0.15142259 0.91300005 3160343
-0.050738465 -0.15142259 0.91300005 4081196
-0.079278834 -0.14825144 0.91300005 1785982
-0.052324019 -0.14745866 0.91300005 3754031
-0.050738465 -0.14825144 0.91300005 4081454
-0.079278834 -0.14508027 0.91300005 1785985
-0.052324019 -0.14587305 0.91300005 607964
-0.050738465 -0.14587305 0.91300005 3622959
-0.079278834 -0.14190911 0.91300005 1720447
-0.052324019 -0.14111631 0.91300005 3754034
-0.079278834 -0.13953075 0.91300005 607964
-0.052324019 -0.13953075 0.91300005 607964
-0.079807356 -0.13741663 0.91300005 607964
-0.052324019 -0.13794515 0.91300005 607964
-0.050738465 -0.13715237 0.91300005 2180995
-0.079278834 -0.13398123 0.91300005 607964
-0.04994566 -0.13398123 0.91300005 3622697
-0.079278834 -0.13081008 0.91300005 1785217
-0.077693284 -0.13001731 0.91300005 607964
-0.050209932 -0.13107434 0.91300005 1590946
-0.079278834 -0.12763894 0.91300005 1851262
-0.077693284 -0.12763894 0.91300005 607964
-0.050738465 -0.12763894 0.91300005 1984388
-0.077693284 -0.12446778 0.91300005 607964
-0.050738465 -0.12446778 0.91300005 3491115
-0.079807356 -0.12156089 0.91300005 2112862
-0.077693284 -0.12050385 0.91300005 607964
-0.050738465 -0.12129663 0.91300005 3621672
-0.079278834 -0.11812545 0.91300005 1720187
-0.077693284 -0.11812545 0.91300005 1720189
-0.050209932 -0.1178612 0.91300005 3359020
-0.079278834 -0.11416151 0.91300005 3028768
-0.077693284 -0.11495431 0.91300005 607964
-0.049681392 -0.11469005 0.91300005 2507361
-0.077693284 -0.11257596 0.91300005 2962977
-0.049152855 -0.11257596 0.91300005 607964
-0.076900482 -0.11019757 0.91300005 1131180
-0.049152855 -0.11019757 0.91300005 1983621
-0.076900482 -0.10702643 0.91300005 607964
-0.074522123 -0.10781921 0.91300005 3028771
-0.049152855 -0.10702643 0.91300005 1983872
-0.076900482 -0.10385528 0.91300005 1065645
-0.049152855 -0.10385528 0.91300005 1918077
-0.077693284 -0.10068413 0.91300005 1785725
-0.049152855 -0.10068413 0.91300005 1917821
-0.077693284 -0.097512975 0.91300005 607964
-0.049152855 -0.097512975 0.91300005 1983358
-0.076636218 -0.094606072 0.91300005 1393053
-0.049152855 -0.0943418 0.91300005 1983359
-0.076107673 -0.091170654 0.91300005 607964
-0.049152855 -0.091170654 0.91300005 607964
-0.074522123 -0.087999508 0.91300005 607964
-0.049152855 -0.088792302 0.91300005 607964
-0.074522123 -0.084828354 0.91300005 1720192
-0.049152855 -0.08403556 0.91300005 3685173
-0.074522123 -0.082450002 0.91300005 607964
-0.072936505 -0.080071628 0.91300005 607964
-0.071350954 -0.079278849 0.91300005 2766621
-0.050738465 -0.079278849 0.91300005 607964
-0.076107673 -0.076107703 0.91300005 2766623
-0.074522123 -0.076900482 0.91300005 1654396
-0.050738465 -0.076900482 0.91300005 2770824
-0.076107673 -0.073729329 0.91300005 1654141
-0.073729314 -0.07293655 0.91300005 607964
-0.050738465 -0.073729329 0.91300005 2969216
-0.073729314 -0.070558153 0.91300005 607964
-0.050738465 -0.070558153 0.91300005 607964
-0.073729314 -0.067387007 0.91300005 1653882
-0.050209932 -0.067122743 0.91300005 607964
-0.073729314 -0.064215854 0.91300005 1588602
-0.050738465 -0.064215854 0.91300005 607964
-0.073729314 -0.0610447 0.91300005 607964
-0.050209932 -0.060780436 0.91300005 2313377
-0.073465049 -0.058137815 0.91300005 607964
-0.049152855 -0.057873551 0.91300005 3033227
-0.072936505 -0.055495199 0.91300005 2633762
-0.071350954 -0.055495199 0.91300005 2568231
-0.04994566 -0.055495199 0.91300005 2506890
-0.071350954 -0.053116828 0.91300005 607964
-0.04994566 -0.053116824 0.91300005 1525426
-0.071350954 -0.049945675 0.91300005 2243719
-0.04994566 -0.049945675 0.91300005 3820681
-0.071350954 -0.046774499 0.91300005 3294342
-0.050209932 -0.047038764 0.91300005 2839212
-0.071350954 -0.043603353 0.91300005 607964
-0.050738465 -0.043603353 0.91300005 4413072
-0.071350954 -0.0404322 0.91300005 607964
-0.050738465 -0.0404322 0.91300005 4216192
-0.07082244 -0.037525319 0.91300005 607964
-0.050738465 -0.037261054 0.91300005 4215154
-0.069765396 -0.034089901 0.91300005 2440570
-0.050738465 -0.034089901 0.91300005 607964
-0.070293918 -0.031183017 0.91300005 1655454
-0.050209932 -0.031183017 0.91300005 4734061
-0.070558175 -0.028540399 0.91300005 607964
-0.050738465 -0.028540399 0.91300005 6960694
-0.069765396 -0.026162025 0.91300005 2048110
-0.04994566 -0.026162026 0.91300005 607964
-0.070558175 -0.022990853 0.91300005 2571392
-0.04994566 -0.022990851 0.91300005 2048171
-0.070558175 -0.019819701 0.91300005 607964
-0.049152855 -0.019819701 0.91300005 4084358
-0.070558175 -0.01664855 0.91300005 607964
-0.049152855 -0.017441349 0.91300005 607964
-0.07082244 -0.013741667 0.91300005 607964
-0.050738465 -0.0134774 0.91300005 607964
-0.070293918 -0.010570517 0.91300005 607964
-0.050738465 -0.01030625 0.91300005 607964
-0.069765396 -0.0079278992 0.91300005 607964
-0.068179786 -0.0071350997 0.91300005 607964
-0.050738465 -0.0071350997 0.91300005 607964
-0.069765396 -0.0039639492 0.91300005 607964
-0.068179786 -0.0039639492 0.91300005 607964
-0.052324019 -0.0031711503 0.91300005 607964
-0.050738465 -0.0039639492 0.91300005 607964
-0.068179786 -0.0015855979 0.91300005 3090964
-0.052324019 -0.0015855979 0.91300005 7952730
-0.050738465 -0.0015855979 0.91300005 607964
-0.069765396 0.00079278758 0.91300005 607964
-0.068179786 0.00079278758 0.91300005 1522300
-0.050738465 0.00079278758 0.91300005 607964
-0.069765396 0.003963938 0.91300005 607964
-0.068179786 0.0047567254 0.91300005 2239758
-0.050738465 0.003963938 0.91300005 607964
-0.068179786 0.0071350886 0.91300005 2174736
-0.050738465 0.0071350886 0.91300005 607964
-0.066594236 0.010306239 0.91300005 607964
-0.050738465 0.010306239 0.91300005 4479113
-0.066594236 0.013477412 0.91300005 1587833
-0.052324019 0.014270199 0.91300005 607964
-0.050738465 0.013477412 0.91300005 607964
-0.066594236 0.016648561 0.91300005 607964
-0.052324019 0.016648561 0.91300005 2836348
-0.050738465 0.016648561 0.91300005 3557508
-0.067122757 0.019555453 0.91300005 1261465
-0.065008625 0.019819714 0.91300005 1588087
-0.052324019 0.019819714 0.91300005 607964
-0.050738465 0.019026926 0.91300005 607964
-0.066594236 0.022990864 0.91300005 1326199
-0.065008625 0.02378365 0.91300005 607964
-0.052324019 0.022990864 0.91300005 607964
-0.066594236 0.025369225 0.91300005 607964
-0.065008625 0.025369225 0.91300005 607964
-0.052324019 0.026162013 0.91300005 607964
-0.069765396 0.028540377 0.91300005 607964
-0.052324019 0.028540377 0.91300005 607964
-0.069765396 0.030125951 0.91300005 2371081
-0.067387015 0.03091874 0.91300005 999595
-0.052324019 0.03091874 0.91300005 2441090
-0.067651272 0.033825628 0.91300005 1718111
-0.053909633 0.034882676 0.91300005 607964
-0.067387015 0.036468275 0.91300005 1522556
-0.064215846 0.037261061 0.91300005 999854
-0.061044708 0.037261061 0.91300005 607964
-0.057873543 0.038053852 0.91300005 607964
-0.055495184 0.037261061 0.91300005 2048388
-0.053909633 0.036468275 0.91300005 607964
-0.064480111 0.04016795 0.91300005 607964
-0.060251903 0.039639425 0.91300005 2827545
-0.057609275 0.04016795 0.91300005 1391261
-0.060251903 0.042810574 0.91300005 3945225
-0.058666348 0.042810574 0.91300005 607964
-0.047775701 -0.18314017 0.91700006 4738607
-0.087588787 -0.18154767 0.91700006 3292967
-0.085107967 -0.18134969 0.91600001 3293223
-0.049260527 -0.18194623 0.91500002 5131826
-0.046927352 -0.18134969 0.91600001 4476721
-0.085107967 -0.17896351 0.91600001 3620648
-0.049260527 -0.17876813 0.91500002 5066799
-0.04697945 -0.17915888 0.91700006 4673585
-0.087588787 -0.17597383 0.91700006 3881757
-0.085107967 -0.17578194 0.91600001 3619878
-0.049260527 -0.17559004 0.91500002 4149299
-0.04697945 -0.17597383 0.91700006 4542769
-0.088385046 -0.1727888 0.91700006 3554595
-0.085153982 -0.17269415 0.91650003 3619362
-0.082630612 -0.17241193 0.91500002 3423011
-0.049826115 -0.17227213 0.9156667 4739382
-0.047775701 -0.1727888 0.91700006 4673836
-0.090773843 -0.17040001 0.91700006 3554092
-0.088385038 -0.16960377 0.91700006 3488543
-0.085061073 -0.16932589 0.91550004 3423264
-0.050108906 -0.1694188 0.91600001 4476202
-0.047775701 -0.16960377 0.91700006 4345368
-0.088385038 -0.16641869 0.91700006 3356705
-0.085107967 -0.16623721 0.91600001 3291168
-0.082630612 -0.16605571 0.91500002 3226150
-0.050108906 -0.16623721 0.91600001 4213558
-0.047775701 -0.16641869 0.91700006 4344630
-0.088119626 -0.16349906 0.91700006 3160105
-0.085153982 -0.16314507 0.91650003 3094568
-0.082630612 -0.16287762 0.91500002 3160103
-0.050108906 -0.16305563 0.91600001 4147247
-0.047775701 -0.16323364 0.91700006 4213291
-0.087588787 -0.1600486 0.91700006 3356455
-0.085404068 -0.16019709 0.91633338 2898470
-0.082630612 -0.16049406 0.91500002 2964263
-0.049260527 -0.16049406 0.91500002 607964
-0.047775701 -0.1600486 0.91700006 607964
-0.090773843 -0.15765983 0.91700006 3160107
-0.088119626 -0.15712899 0.91700006 3094311
-0.084967114 -0.15720306 0.9162001 2767142
-0.081836075 -0.15811047 0.91500002 2898213
-0.049314365 -0.1582824 0.91600001 607964
-0.047775701 -0.15686356 0.91700006 2312585
-0.088385038 -0.15447478 0.91700006 2963744
-0.085107967 -0.15430632 0.91600001 2963744
-0.081836075 -0.15493238 0.91500002 3094561
-0.049260527 -0.15493238 0.91500002 2443398
-0.047775701 -0.15447478 0.91700006 607964
-0.088119626 -0.15182059 0.91700006 3029270
-0.085200012 -0.15208599 0.91700006 3160340
-0.081836075 -0.15175429 0.91500002 3160346
-0.0794525 -0.15254879 0.91500002 3226397
-0.049260527 -0.15175429 0.91500002 2443143
-0.047775701 -0.15208599 0.91700006 2312073
-0.087588787 -0.14890096 0.91700006 3094549
-0.085200004 -0.14890096 0.91700006 3160089
-0.081836075 -0.14857619 0.91500002 3029544
-0.049260527 -0.14857619 0.91500002 2377350
-0.04697945 -0.14890096 0.91700006 2181000
-0.087588787 -0.14651215 0.91700006 3028766
-0.085200012 -0.14571589 0.91700006 3029025
-0.081836075 -0.14539808 0.91500002 1785729
-0.049790226 -0.14513324 0.91500008 2705512
-0.04697945 -0.14571589 0.91700006 2836572
-0.085200012 -0.14253083 0.91700006 2309458
-0.081881225 -0.14229812 0.91549999 607964
-0.050055072 -0.14221996 0.91500002 607964
-0.04697945 -0.14253083 0.91700006 2901850
-0.087588787 -0.13934579 0.91700006 607964
-0.085153982 -0.13927025 0.91650003 1196719
-0.08210092 -0.13930672 0.91500008 1393053
-0.049790226 -0.13930672 0.91500008 1525154
-0.046979453 -0.13934579 0.91700006 1329071
-0.044590645 -0.13854952 0.91700006 3623215
-0.085200012 -0.13616075 0.91700006 1196716
-0.081836075 -0.13586378 0.91500002 607964
-0.049260527 -0.13586378 0.91500002 607964
-0.046927352 -0.13601226 0.91600001 2902109
-0.044590645 -0.13616075 0.91700006 607964
-0.084934585 -0.13324115 0.91700006 607964
-0.081836075 -0.13348022 0.91500002 3028513
-0.046679303 -0.13314389 0.91633338 2705255
-0.044590645 -0.13297571 0.91700006 2246788
-0.084403731 -0.13058694 0.91700006 607964
-0.081881225 -0.13116783 0.91550004 607964
-0.049260527 -0.13030212 0.91500002 607964
-0.047175404 -0.13092673 0.9156667 2573663
-0.044590645 -0.13058694 0.91700006 3752746
-0.084403731 -0.12819815 0.91700006 607964
-0.081926376 -0.12805834 0.91600001 1785470
-0.049260527 -0.12791854 0.91500002 607964
-0.046953399 -0.12812781 0.91650003 2180478
-0.044590645 -0.12899439 0.91700006 607964
-0.085200012 -0.12501308 0.91700006 1196971
-0.081926376 -0.12487677 0.91600001 1196715
-0.0794525 -0.12474044 0.91500002 607964
-0.049260527 -0.12474044 0.91500002 607964
-0.046953402 -0.12494449 0.91650003 2901585
-0.044590645 -0.12580934 0.91700006 3688237
-0.087588787 -0.12182805 0.91700006 607964
-0.085153982 -0.12176119 0.91650003 1196715
-0.08210092 -0.1212975 0.91500008 607964
-0.049260527 -0.12156233 0.91500002 2049661
-0.046927352 -0.12169519 0.91600001 2836047
-0.044590645 -0.12182805 0.91700006 2049668
-0.085200004 -0.11864298 0.91700006 1196973
-0.081836075 -0.11838422 0.91500002 1131179
-0.049260527 -0.11917876 0.91500002 607964
-0.046927352 -0.1185136 0.91600001 2770009
-0.044590645 -0.11864298 0.91700006 2049410
-0.085200012 -0.11545794 0.91700006 1131183
-0.081926376 -0.11533203 0.91600001 1196719
-0.0794525 -0.11600065 0.91500002 607964
-0.04697945 -0.11545794 0.91700006 2638927
-0.044590645 -0.11545794 0.91700006 607964
-0.084403731 -0.1122729 0.91700006 3159851
-0.081970662 -0.11221125 0.91650003 1196718
-0.0794525 -0.11202803 0.91500002 607964
-0.046927352 -0.11215046 0.91600001 1393839
-0.044590645 -0.1122729 0.91700006 607964
-0.081749521 -0.10935327 0.91700006 607964
-0.0794525 -0.10884993 0.91500002 607964
-0.077863477 -0.1080554 0.91500002 607964
-0.046927352 -0.10896889 0.91600001 2704218
-0.044590645 -0.10829158 0.91700006 607964
-0.084403731 -0.10669908 0.91700006 607964
-0.081970662 -0.10584463 0.91650003 607964
-0.079539336 -0.10578645 0.91600001 1720191
-0.046679303 -0.10609066 0.91633338 3293480
-0.044590645 -0.10590281 0.91700006 1983362
-0.082014948 -0.10351404 0.91700006 607964
-0.0794525 -0.10328826 0.91500002 2963495
-0.047175404 -0.10389321 0.9156667 1459361
-0.044590645 -0.10351404 0.91700006 3359279
-0.081926376 -0.10101496 0.91600001 1590959
-0.0794525 -0.10090469 0.91500002 607964
-0.046927352 -0.10101496 0.91600001 2638168
-0.044059813 -0.10139066 0.91700006 607964
-0.081926376 -0.097833395 0.91600001 607964
-0.0794525 -0.097726583 0.91500002 1851774
-0.046927352 -0.097833395 0.91600001 2572629
-0.044590645 -0.097940199 0.91700006 1917829
-0.081749521 -0.095020555 0.91700006 607964
-0.079539336 -0.094650932 0.91600001 607964
-0.077863477 -0.093753934 0.91500002 3225381
-0.046927352 -0.094651803 0.91600001 1983875
-0.044590645 -0.094755128 0.91700006 2049411
-0.081218667 -0.090773813 0.91700006 607964
-0.079626173 -0.091570087 0.91700006 2244745
-0.077863477 -0.091370367 0.91500002 607964
-0.046927352 -0.091470227 0.91600007 2048899
-0.079095341 -0.088119626 0.91700006 607964
-0.076804087 -0.088457122 0.91500008 2308963
-0.046927352 -0.088288665 0.91600001 2376069
-0.079095341 -0.085465424 0.91700006 1524129
-0.076804087 -0.084749334 0.91500008 1458591
-0.046927352 -0.085107088 0.91600001 4214120
-0.081218667 -0.081218682 0.91700006 607964
-0.079626173 -0.082014956 0.91700006 607964
-0.077068932 -0.081836075 0.91500002 1196720
-0.074685365 -0.081041545 0.91500002 607964
-0.049260527 -0.081836075 0.91500002 2837888
-0.04697945 -0.082014956 0.91700006 3295867
-0.081218667 -0.078829914 0.91700006 607964
-0.079626173 -0.078829914 0.91700006 607964
-0.077068932 -0.079452522 0.91500002 607964
-0.074685365 -0.079452522 0.91500002 607964
-0.049314365 -0.078743085 0.91600001 3232128
-0.047775701 -0.078829914 0.91700006 607964
-0.081218667 -0.076441146 0.91700006 607964
-0.079626173 -0.076441146 0.91700006 607964
-0.077333778 -0.077333771 0.91500008 1327258
-0.049260527 -0.076274417 0.91500002 607964
-0.04697945 -0.076441146 0.91700006 2377085
-0.081749521 -0.074317768 0.91700006 1787036
-0.079539336 -0.07397072 0.91600001 1784950
-0.077863477 -0.073890835 0.91500002 607964
-0.049260527 -0.073890835 0.91500002 2180225
-0.046953402 -0.074012406 0.91650003 1918337
-0.081218667 -0.070867285 0.91700006 607964
-0.079626173 -0.070867285 0.91700006 1719418
-0.077068932 -0.070712715 0.91500002 607964
-0.049260527 -0.070712715 0.91500002 607964
-0.046927352 -0.07079 0.91600001 1131693
-0.081218667 -0.067682236 0.91700006 1654140
-0.079626173 -0.067682236 0.91700006 607964
-0.077068932 -0.067534626 0.91500002 1130921
-0.049260527 -0.068329155 0.91500002 607964
