# .PCD v0.7 - Point Cloud Data file format
VERSION 0.7
FIELDS x y z rgba
SIZE 4 4 4 4
TYPE F F F U
COUNT 1 1 1 1
WIDTH 1075
HEIGHT 1
VIEWPOINT 0 0 0 1 0 0 0
POINTS 1075
DATA ascii
-0.091565743 -0.148485 0.95000005 8433022
-0.087868392 -0.14882539 0.94866675 8426609
-0.08561074 -0.14899559 0.94800007 10328472
-0.042805333 -0.14817239 0.94800007 4429102
-0.040638011 -0.14882539 0.94866675 6846292
-0.091290772 -0.14573529 0.95000005 9152657
-0.088127159 -0.14577928 0.9485001 4429102
-0.042805333 -0.14652602 0.94800007 10596031
-0.04039922 -0.14593384 0.94950002 5411396
-0.091565743 -0.14353548 0.95000005 8498819
-0.08817406 -0.14256035 0.949 7443552
-0.040377513 -0.14256036 0.94900006 6521158
-0.088174053 -0.13926417 0.94900006 9083514
-0.040335834 -0.13911742 0.94800007 6258761
-0.037946153 -0.13858601 0.95000005 6575462
-0.091565743 -0.13528635 0.95000005 8761987
-0.088174053 -0.13596797 0.94900006 9015675
-0.039512668 -0.13664787 0.94800007 8743331
-0.037906211 -0.13596883 0.94900006 6123861
-0.091565743 -0.13363649 0.95000005 12107723
-0.088174053 -0.13349582 0.94900006 9996441
-0.039512668 -0.13335516 0.94800007 4429102
-0.037866268 -0.13335516 0.94800007 10862012
-0.094590448 -0.13088679 0.95000005 11322529
-0.091565743 -0.13116176 0.95000005 6595418
-0.088127166 -0.1309551 0.94850004 7376487
-0.037866268 -0.13088563 0.94800007 4429102
-0.097340189 -0.1278621 0.95000005 4429102
-0.094865412 -0.1278621 0.95000005 12110253
-0.091469355 -0.12772751 0.949 10468521
-0.08835467 -0.12786731 0.94800013 10192804
-0.036819655 -0.12804677 0.94933337 9545864
-0.034646474 -0.12703717 0.95000005 12038588
-0.091565736 -0.12456243 0.95000005 10468775
-0.088127166 -0.12436532 0.94850004 8686983
-0.037081305 -0.12443131 0.949 6265934
-0.034646474 -0.12456243 0.95000005 12038832
-0.091565743 -0.12126274 0.95000005 10534308
-0.08817406 -0.12113509 0.949 8819078
-0.036219936 -0.12100746 0.94800007 8233581
-0.034646474 -0.12126274 0.95000005 8233838
-0.090740837 -0.11796308 0.95000005 8102499
-0.08847972 -0.11815469 0.94933337 8098676
-0.036819655 -0.11815469 0.94933337 9348745
-0.034646474 -0.11796308 0.95000005 8168049
-0.091565743 -0.11548832 0.95000005 7495268
-0.087868392 -0.11587503 0.94866675 6001490
-0.036296345 -0.11548832 0.95000005 4429102
-0.034646474 -0.11548832 0.95000005 11840948
-0.094865412 -0.11218866 0.95000005 4736843
-0.091565736 -0.11301359 0.95000005 5599294
-0.08817406 -0.11289462 0.949 8163712
-0.08561074 -0.11277567 0.94800007 9144459
-0.036794182 -0.11312996 0.94866675 9347975
-0.034646474 -0.11301359 0.95000005 4429102
-0.094040513 -0.11053885 0.95000005 4429102
-0.091290772 -0.1099889 0.95000005 6977615
-0.088080272 -0.10948294 0.94800007 8098681
-0.036219936 -0.11030614 0.94800007 11775664
-0.034646474 -0.10971393 0.95000005 8036717
-0.091372974 -0.10619023 0.94800007 6125884
-0.088080272 -0.10619023 0.94800007 8163961
-0.034646474 -0.10641426 0.95000005 7970926
-0.091372974 -0.10289751 0.94800007 5994564
-0.08835467 -0.10317191 0.94800013 9080969
-0.034610003 -0.10300692 0.94900006 7971184
-0.032996666 -0.10311459 0.95000005 7905394
-0.093842536 -0.10042799 0.94800007 4933966
-0.091372974 -0.10042799 0.94800007 7428180
-0.088903472 -0.10042799 0.94800007 9081224
-0.034646474 -0.10063986 0.95000005 4429102
-0.032996666 -0.10063986 0.95000005 11578807
-0.093842536 -0.097958416 0.94800007 4735813
-0.091420732 -0.098009646 0.9485001 4881201
-0.088903472 -0.097958416 0.94800007 9277817
-0.034646474 -0.098165073 0.95000005 8102255
-0.032996666 -0.098165073 0.95000005 4429102
-0.093842536 -0.094665699 0.94800007 5064782
-0.091420732 -0.094716065 0.9485001 5664318
-0.088903472 -0.094665699 0.94800007 8949885
-0.034646474 -0.094865412 0.95000005 11578539
-0.032171763 -0.094865412 0.95000005 7971180
-0.093842536 -0.091372982 0.94800007 5261130
-0.091372974 -0.091372982 0.94800007 6117956
-0.088903472 -0.091372982 0.94800007 8685188
-0.034646474 -0.091565743 0.95000005 11381165
-0.032171763 -0.091565751 0.95000005 7905133
-0.091372974 -0.088903457 0.94800007 6703435
-0.034646474 -0.08826609 0.95000005 7904878
-0.032171763 -0.08826609 0.95000005 7970669
-0.034646474 -0.084966421 0.95000005 7904879
-0.032171763 -0.084966421 0.95000005 7970412
-0.034646474 -0.082491688 0.95000005 4429102
-0.032171763 -0.082491688 0.95000005 11314597
-0.034646474 -0.080016926 0.95000005 4429102
-0.032171763 -0.080016926 0.95000005 4429102
-0.034610003 -0.076637372 0.94900006 7511140
-0.032171763 -0.076717257 0.95000005 7510884
-0.029696988 -0.076717257 0.95000005 10657696
-0.034573536 -0.073263004 0.94800007 7246687
-0.032171763 -0.073417574 0.95000005 7115615
-0.029696988 -0.072592646 0.95000005 9606299
-0.034573536 -0.069970295 0.94800007 7313761
-0.032171763 -0.070117906 0.95000005 7050850
-0.029696988 -0.070117906 0.95000005 10197656
-0.095488876 -0.067500763 0.94800007 5262412
-0.034573536 -0.067500763 0.94800007 4429102
-0.032171763 -0.067643173 0.95000005 10792097
-0.029696988 -0.067643173 0.95000005 10988454
-0.094665706 -0.065031216 0.94800007 4999751
-0.092196144 -0.065854385 0.94800007 4866633
-0.032137029 -0.06509982 0.949 4429102
-0.029147051 -0.064893447 0.95000005 9085568
-0.032120533 -0.061771497 0.94850004 6134093
-0.029696988 -0.06186875 0.95000005 11249580
-0.032104034 -0.058445781 0.94800007 7839341
-0.029696988 -0.058569089 0.95000005 11315120
-0.093842536 -0.055153072 0.94800007 5393492
-0.092196144 -0.055153072 0.94800007 4812862
-0.031829648 -0.054878682 0.94800013 6724440
-0.029696988 -0.055269428 0.95000005 11249585
-0.094040513 -0.051969759 0.95000005 5526099
-0.091470219 -0.051915057 0.949 4813376
-0.031280868 -0.051860355 0.94800007 7904621
-0.029696988 -0.051969759 0.95000005 7839342
-0.094040513 -0.049495 0.95000005 5459534
-0.091470227 -0.049442902 0.94900006 4934984
-0.031280868 -0.049390804 0.94800007 4429102
-0.029696988 -0.049495 0.95000005 11381163
-0.093842536 -0.047744416 0.94800007 5459786
-0.092196144 -0.047744416 0.94800007 4429102
-0.032120533 -0.046945564 0.94850004 9479289
-0.029147051 -0.047295209 0.95000005 6789957
-0.032104034 -0.043628536 0.94800007 5533219
-0.028872084 -0.043720577 0.95000005 5993780
-0.032104034 -0.040335819 0.94800007 3958298
-0.028856454 -0.040400073 0.94950002 3952146
-0.02639731 -0.03959601 0.95000005 3356433
-0.032104034 -0.037043102 0.94800007 3960351
-0.028840825 -0.037082177 0.94900006 3692828
-0.02639731 -0.037946153 0.95000005 3161873
-0.032104034 -0.034573551 0.94800007 3163670
-0.028840825 -0.034610018 0.94900006 3294234
-0.031829648 -0.031829633 0.94800013 4429102
-0.028856454 -0.032154389 0.94950008 3894313
-0.032104034 -0.028811309 0.94800007 3956013
-0.028872084 -0.028872093 0.95000005 4152880
-0.034573536 -0.024695402 0.94800007 4429102
-0.032154396 -0.025558535 0.94950008 4425009
-0.029696988 -0.026397355 0.95000005 4478785
-0.037043102 -0.022225851 0.94800007 6786395
-0.034610003 -0.022248428 0.94900006 7770234
-0.032171763 -0.022272743 0.95000005 5671757
-0.028872084 -0.021447837 0.95000005 4429102
-0.02639731 -0.021447837 0.95000005 7772032
-0.036219936 -0.018933134 0.94800007 6524499
-0.034573536 -0.018933134 0.94800007 8617844
-0.032104034 -0.018933134 0.94800007 6854230
-0.028872084 -0.019797983 0.95000005 6853970
-0.041376084 -0.18039973 0.95300007 13025972
-0.094337486 -0.17708963 0.95300007 11643560
-0.092130736 -0.17819302 0.95300007 8821880
-0.089372367 -0.1787447 0.95300007 10919583
-0.094337486 -0.17543462 0.95300007 11841460
-0.092682399 -0.17543462 0.95300007 4429102
-0.039721068 -0.17543462 0.95300007 4429102
-0.097647585 -0.17377955 0.95300007 12764357
-0.095164999 -0.17295203 0.95300007 10531999
-0.092682399 -0.17295203 0.95300007 4429102
-0.039721068 -0.17212449 0.95300007 4429102
-0.097647585 -0.16881441 0.95300007 14472915
-0.095164999 -0.16964194 0.95300007 8695929
-0.092682399 -0.16964194 0.95300007 4429102
-0.097647585 -0.16715939 0.95300007 14605014
-0.095164999 -0.16715939 0.95300007 13621201
-0.038065985 -0.16633186 0.95300007 12828088
-0.039721068 -0.16384929 0.95300007 4429102
-0.039721068 -0.16053922 0.95300007 4429102
-0.038065985 -0.16053922 0.95300007 9531943
-0.039721068 -0.15805665 0.95300007 5861674
-0.038065985 -0.15888415 0.95300007 4429102
-0.039721068 -0.15474656 0.95300007 6586937
-0.097647585 -0.15060897 0.95300007 4429102
-0.094889164 -0.15116064 0.95300007 7778150
-0.095164999 -0.14812636 0.95300007 9550981
-0.092682399 -0.14729883 0.95300007 12502222
-0.095164999 -0.14564382 0.95300007 14672605
-0.097647585 -0.14316124 0.95300007 9484422
-0.095164999 -0.14316124 0.95300007 9616005
-0.091854893 -0.14233373 0.95300007 4429102
-0.038065985 -0.14316124 0.95300007 8219976
-0.094337486 -0.13902366 0.95300007 14999515
-0.091854893 -0.13985117 0.95300007 5936975
-0.038065985 -0.14067867 0.95300007 7430737
-0.091854893 -0.13736859 0.95300007 11910854
-0.036410965 -0.13571356 0.95300007 4429102
-0.036410965 -0.13323098 0.95300007 7579764
-0.036410965 -0.13074842 0.95300007 4429102
-0.033100866 -0.12743834 0.95300007 11973570
-0.095164999 -0.12495578 0.95300007 12044716
-0.033100866 -0.12495579 0.95300007 4429102
-0.095164999 -0.12164567 0.95300007 11914145
-0.033100866 -0.12164567 0.95300007 8168303
-0.092682399 -0.11833559 0.95300007 8433249
-0.033100866 -0.11833559 0.95300007 8102769
-0.097647585 -0.11502551 0.95300007 3882310
-0.095164999 -0.11502551 0.95300007 3963700
-0.033100866 -0.11502551 0.95300007 8102513
-0.033100866 -0.11254293 0.95300007 4429102
-0.095164999 -0.11006039 0.95300007 4429102
-0.092682399 -0.10923286 0.95300007 4429102
-0.033100866 -0.11006039 0.95300007 7970923
-0.033100866 -0.1067503 0.95300007 7970925
-0.03144585 -0.10592277 0.95300007 4429102
-0.03144585 -0.10344022 0.95300007 7903594
-0.03144585 -0.10013014 0.95300007 4429102
-0.03144585 -0.097647533 0.95300007 4429102
-0.029790768 -0.095164984 0.95300007 7840113
-0.029790768 -0.0918549 0.95300007 11447217
-0.029790768 -0.088544816 0.95300007 11643565
-0.029790768 -0.085234731 0.95300007 11446185
-0.029790768 -0.081924647 0.95300007 11117478
-0.028963258 -0.079442106 0.95300007 10723491
-0.028135749 -0.076959521 0.95300007 4429102
-0.028687423 -0.073925272 0.95300007 6329940
-0.028135749 -0.070339337 0.95300007 4429102
-0.026480669 -0.069511808 0.95300007 4429102
-0.028135749 -0.067029253 0.95300007 7774313
-0.026480669 -0.067029253 0.95300007 7642728
-0.026480669 -0.064546704 0.95300007 11249587
-0.028135749 -0.062064126 0.95300007 7839341
-0.026480669 -0.062064126 0.95300007 7773550
-0.028135749 -0.058754042 0.95300007 7904879
-0.028135749 -0.055443957 0.95300007 7839343
-0.028135749 -0.052133877 0.95300007 7774062
-0.028135749 -0.049651302 0.95300007 11578283
-0.028135749 -0.046341218 0.95300007 4429102
-0.026480669 -0.047168728 0.95300007 4429102
-0.025653161 -0.043858644 0.95300007 5400120
-0.025377324 -0.040824398 0.95300007 4280600
-0.025377324 -0.03696264 0.95300007 3963685
-0.026480669 -0.033928394 0.95300007 3229213
-0.026480669 -0.031445816 0.95300007 3622701
-0.026480669 -0.028963268 0.95300007 4082997
-0.028687423 -0.025377339 0.95300007 4812094
-0.028963258 -0.023170585 0.95300007 4429102
-0.026480669 -0.023170585 0.95300007 6256743
-0.099511005 -0.17746128 0.95500004 12169900
-0.097023234 -0.17746128 0.95500004 11907504
-0.094535463 -0.17911983 0.95500004 11511209
-0.039804425 -0.17911983 0.95500004 4429102
-0.038145874 -0.17746128 0.95500004 4429102
-0.097023234 -0.17580278 0.95500004 4429102
-0.037593044 -0.1746971 0.9550001 4429102
-0.038145874 -0.17248571 0.95500004 4429102
-0.037316628 -0.16999795 0.95500004 8431731
-0.036487378 -0.16668093 0.95500004 4429102
-0.039804425 -0.16253462 0.95500004 11372630
-0.038145874 -0.1633639 0.95500004 11971978
-0.099511005 -0.1592176 0.95500004 14670043
-0.097299665 -0.15977046 0.9550001 11190690
-0.036487378 -0.16004688 0.95500004 7178295
-0.034828823 -0.16004688 0.95500004 9073462
-0.099511005 -0.15755911 0.95500004 14604508
-0.097023234 -0.15755911 0.95500004 9419143
-0.037316628 -0.15755911 0.95500004 6259261
-0.099511005 -0.15590057 0.95500004 14538971
-0.097023234 -0.15507132 0.95500004 4429102
-0.037316628 -0.15507132 0.95500004 7699780
-0.097023234 -0.15258354 0.95500004 14605790
-0.037316628 -0.15175429 0.95500004 5474870
-0.034828823 -0.15092504 0.95500004 4429102
-0.037593044 -0.14871365 0.9550001 7889480
-0.037316628 -0.1451202 0.95500004 6257977
-0.099511005 -0.14263244 0.95500004 14671069
-0.036487378 -0.14263244 0.95500004 4429102
-0.034828823 -0.14263244 0.95500004 8482646
-0.099511005 -0.1409739 0.95500004 14671068
-0.097023234 -0.14014466 0.95500004 4429102
-0.094535463 -0.1409739 0.95500004 4429102
-0.036487378 -0.14014466 0.95500004 6126916
-0.034828823 -0.14014466 0.95500004 4429102
-0.036487378 -0.13765688 0.95500004 4429102
-0.034828823 -0.13682763 0.95500004 6385981
-0.034828823 -0.1335106 0.95500004 7579507
-0.033999577 -0.13019356 0.95500004 8365680
-0.031511843 -0.1260473 0.95500004 4429102
-0.031511843 -0.12438875 0.95500004 4429102
-0.031511843 -0.12190097 0.95500004 8102767
-0.096193962 -0.11858393 0.95500004 9922907
-0.094535463 -0.11858393 0.95500004 8758107
-0.031511843 -0.11858393 0.95500004 8102510
-0.031511843 -0.1152669 0.95500004 8102510
-0.031511843 -0.11194988 0.95500004 7905389
-0.029853288 -0.11112063 0.95500004 4429102
-0.031511843 -0.1094621 0.95500004 4429102
-0.029853288 -0.1094621 0.95500004 11053735
-0.031511843 -0.1078036 0.95500004 11381670
-0.029853288 -0.10697433 0.95500004 4429102
-0.029300457 -0.10338088 0.9550001 6395217
-0.029024042 -0.10034028 0.95500004 7047768
-0.028747629 -0.097299635 0.9550001 8361073
-0.028194796 -0.094535433 0.95500004 4429102
-0.028194796 -0.092047676 0.95500004 7905391
-0.028194796 -0.088730641 0.95500004 8167535
-0.028194796 -0.085413605 0.95500004 7970415
-0.026536243 -0.085413605 0.95500004 7904882
-0.028194796 -0.082096584 0.95500004 7838827
-0.026536243 -0.082096584 0.95500004 7773292
-0.026536243 -0.07960882 0.95500004 10788774
-0.026536243 -0.077121034 0.95500004 7641959
-0.025983414 -0.07352756 0.9550001 8231286
-0.025430582 -0.070763379 0.9550001 8165235
-0.023219258 -0.069657683 0.95500004 10065056
-0.024877751 -0.06716992 0.95500004 4429102
-0.023219258 -0.067999192 0.95500004 10395819
-0.024877751 -0.063852891 0.95500004 7708014
-0.024877751 -0.061365131 0.95500004 11183785
-0.025983414 -0.059153765 0.9550001 6724698
-0.026536243 -0.055560317 0.95500004 7839600
-0.026536243 -0.052243285 0.95500004 7906158
-0.025430582 -0.049202658 0.9550001 7510899
-0.023219258 -0.048096966 0.95500004 3742010
-0.024877751 -0.04643847 0.95500004 4429102
-0.023219258 -0.04643847 0.95500004 3349320
-0.023219258 -0.043950684 0.95500004 6185793
-0.023219258 -0.040633656 0.95500004 4471309
-0.023219258 -0.037316628 0.95500004 3497007
-0.024877751 -0.033999596 0.95500004 3698211
-0.024877751 -0.031511813 0.95500004 4429102
-0.024877751 -0.02985332 0.95500004 4429102
-0.026536243 -0.025707021 0.95500004 4429102
-0.024877751 -0.021560719 0.95500004 4429102
-0.037433848 -0.17885064 0.95800006 8563057
-0.034938235 -0.17801876 0.95800006 4429102
-0.036601998 -0.17635505 0.95800006 4429102
-0.034383669 -0.17524588 0.95800006 7118940
-0.036601998 -0.17302755 0.95800006 11840186
-0.034938235 -0.1721957 0.95800006 7970932
-0.034106385 -0.16886826 0.95800006 10727831
-0.034106385 -0.16637266 0.95800006 12697021
-0.036601998 -0.16387707 0.95800006 8432499
-0.034938235 -0.16387707 0.95800006 12630423
-0.033274535 -0.16054964 0.95800006 4429102
-0.034106385 -0.15722218 0.95800006 7437643
-0.034106385 -0.15389472 0.95800006 7765828
-0.031610835 -0.15306287 0.95800006 4429102
-0.033274535 -0.15139915 0.95800006 9140039
-0.036601998 -0.14807166 0.95800006 4429102
-0.034106385 -0.14890353 0.95800006 4429102
-0.031610835 -0.14890353 0.95800006 6915643
-0.036601998 -0.14640795 0.95800006 8349507
-0.034383669 -0.14529878 0.95800006 5801783
-0.031610835 -0.1447442 0.95800006 4429102
-0.033274535 -0.14224863 0.95800006 4429102
-0.031610835 -0.14141676 0.95800006 4429102
-0.033274535 -0.13892117 0.95800006 6255418
-0.031610835 -0.13975306 0.95800006 7955009
-0.033274535 -0.1364256 0.95800006 4429102
-0.031610835 -0.1364256 0.95800006 7563637
-0.029947069 -0.1364256 0.95800006 7362668
-0.033274535 -0.13393 0.95800006 7447923
-0.031610835 -0.13393 0.95800006 4429102
-0.029947069 -0.13393 0.95800006 4429102
-0.031610835 -0.13060255 0.95800006 8365679
-0.029947069 -0.13060255 0.95800006 8365678
-0.031610835 -0.12810695 0.95800006 11907772
-0.029392501 -0.12755239 0.95800006 9283209
-0.029947069 -0.12394762 0.95800006 8036721
-0.029115219 -0.12145206 0.95800006 7839328
-0.029115219 -0.11895645 0.95800006 6134349
-0.029115219 -0.115629 0.95800006 7905384
-0.028837934 -0.11257884 0.95800006 8887930
-0.026619602 -0.11230156 0.95800006 10061419
-0.028283367 -0.1089741 0.95800006 7575384
-0.026619602 -0.1089741 0.95800006 9731418
-0.028283367 -0.1064785 0.95800006 9931373
-0.026619602 -0.1064785 0.95800006 9600320
-0.028283367 -0.10481481 0.95800006 4429102
-0.026065037 -0.10370564 0.95800006 4429102
-0.025787752 -0.10065548 0.95800006 7959863
-0.025787752 -0.097328 0.95800006 8553805
-0.023292199 -0.097328007 0.95800006 7046200
-0.025787752 -0.094000556 0.95800006 7443550
-0.023292199 -0.094832405 0.95800006 10191906
-0.025787752 -0.091504954 0.95800006 7774314
-0.023292199 -0.091504954 0.95800006 10921378
-0.025787752 -0.089009374 0.95800006 6265423
-0.024955902 -0.08568193 0.95800006 7904878
-0.023292199 -0.084850058 0.95800006 4429102
-0.024955902 -0.082354471 0.95800006 7773291
-0.023292199 -0.081522599 0.95800006 4429102
-0.024955902 -0.079027027 0.95800006 7642474
-0.023292199 -0.079027027 0.95800006 7576427
-0.024955902 -0.076531455 0.95800006 4429102
-0.023292199 -0.076531455 0.95800006 10986659
-0.024955902 -0.074867703 0.95800006 10327964
-0.023292199 -0.074035823 0.95800006 6655331
-0.022183022 -0.070985675 0.95800006 7639155
-0.023292199 -0.066549055 0.95800006 4429102
-0.022737611 -0.063776188 0.95800006 8757376
-0.022460315 -0.061557904 0.95800006 11053737
-0.024955902 -0.058230452 0.95800006 4429102
-0.022460315 -0.059062302 0.95800006 7839597
-0.024955902 -0.055734854 0.95800006 7839856
-0.022460315 -0.055734854 0.95800006 6199881
-0.024955902 -0.052407399 0.95800006 8036456
-0.022460315 -0.052407399 0.95800006 5669716
-0.022183022 -0.049357221 0.95800006 2832955
-0.019964734 -0.048248053 0.95800006 918795
-0.021628434 -0.046584353 0.95800006 4429102
-0.021628434 -0.044088751 0.95800006 4429102
-0.019964734 -0.043256901 0.95800006 4429102
-0.021628434 -0.040761299 0.95800006 5405995
-0.019964734 -0.041593153 0.95800006 6514510
-0.021628434 -0.037433848 0.95800006 3428644
-0.022460315 -0.034106404 0.95800006 3037990
-0.022460315 -0.031610802 0.95800006 2833193
-0.024955902 -0.028283352 0.95800006 4429102
-0.022737611 -0.029392516 0.95800006 4292141
-0.024955902 -0.025787774 0.95800006 4683062
-0.023292199 -0.025787774 0.95800006 4879674
-0.024955902 -0.023292152 0.95800006 5994850
-0.023292199 -0.023292152 0.95800006 5798494
-0.036716618 -0.18024519 0.96100003 12829113
-0.035047647 -0.18024519 0.96100003 12960702
-0.033378735 -0.17857623 0.96100003 4429102
-0.031709824 -0.17857623 0.96100003 4429102
-0.033378735 -0.17690732 0.96100003 4429102
-0.031709824 -0.17607284 0.96100003 4429102
-0.033378735 -0.17273495 0.96100003 8036468
-0.031709824 -0.17273495 0.96100003 8036210
-0.0311535 -0.16911893 0.96100008 9743756
-0.033378735 -0.16522475 0.96100003 4429102
-0.031709824 -0.1660592 0.96100003 8563062
-0.033378735 -0.16355579 0.96100003 4429102
-0.031709824 -0.16355579 0.96100003 13154947
-0.031709824 -0.16105241 0.96100003 7576122
-0.031709824 -0.15771452 0.96100003 8482124
-0.030597173 -0.1546548 0.96100008 5736506
-0.031709824 -0.15187326 0.96100003 9402453
-0.033378735 -0.14686643 0.96100003 8811343
-0.030875336 -0.14603195 0.96100003 6061123
-0.030597173 -0.14297226 0.96100008 4429102
-0.028371936 -0.14185961 0.96100003 7234127
-0.030597173 -0.13907805 0.96100008 4429102
-0.028371936 -0.13935621 0.96100003 6127157
-0.028371936 -0.13601834 0.96100003 8552326
-0.026702963 -0.13601834 0.96100003 5798984
-0.028371936 -0.13351496 0.96100003 4429102
-0.026702963 -0.13351496 0.96100003 12236705
-0.028371936 -0.13101155 0.96100003 4429102
-0.025868507 -0.13101155 0.96100003 4429102
-0.028371936 -0.12683921 0.96100003 4429102
-0.026146661 -0.12795182 0.96100008 9149310
-0.028371936 -0.12433578 0.96100003 7904097
-0.026702963 -0.12433578 0.96100003 7903824
-0.026702963 -0.12099791 0.96100003 10917757
-0.026702963 -0.11849451 0.96100003 10853016
-0.025868509 -0.1159911 0.96100003 7510109
-0.025034051 -0.11265323 0.96100003 6916683
-0.025034051 -0.10931536 0.96100003 6650935
-0.025034051 -0.10597749 0.96100003 6847788
-0.02336514 -0.10514303 0.96100003 4429102
-0.02336514 -0.10347407 0.96100003 9264927
-0.02336514 -0.10097069 0.96100003 4429102
-0.02336514 -0.093460463 0.96100003 10519650
-0.02336514 -0.090122595 0.96100003 4429102
-0.02336514 -0.088453636 0.96100003 11315881
-0.02336514 -0.086784728 0.96100003 11315111
-0.022530653 -0.082612373 0.96100003 7707498
-0.021696163 -0.079274505 0.96100003 7576427
-0.020027254 -0.079274505 0.96100003 7641963
-0.021696163 -0.07593663 0.96100003 7642214
-0.021696163 -0.073433191 0.96100003 4429102
-0.021696163 -0.068426408 0.96100003 10197924
-0.021696163 -0.06508854 0.96100003 4429102
-0.020027254 -0.060081713 0.96100003 11250870
-0.020027254 -0.058412801 0.96100003 11316154
-0.020027254 -0.055909388 0.96100003 9410151
-0.01947093 -0.05229336 0.96100008 3158556
-0.016689368 -0.051737059 0.96100003 1770497
-0.018914605 -0.049511783 0.96100008 1782547
-0.019192766 -0.045895752 0.96100003 3701553
-0.018358279 -0.043392364 0.96100003 8283742
-0.018914605 -0.040610798 0.96100008 4429102
-0.020027254 -0.037551075 0.96100003 3493914
-0.020027254 -0.034213208 0.96100003 2774317
-0.020027254 -0.030875335 0.96100003 2700333
-0.021696163 -0.028371921 0.96100003 4429102
-0.021696163 -0.025868531 0.96100003 4551985
-0.033448201 -0.18062031 0.96300006 13158083
-0.031775817 -0.18062031 0.96300006 13354691
-0.030103369 -0.17894787 0.96300006 4429102
-0.030103369 -0.17560305 0.96300006 12365742
-0.030103369 -0.17309442 0.96300006 4429102
-0.030103369 -0.17058581 0.96300006 12368056
-0.028430983 -0.16974962 0.96300006 8365939
-0.030103369 -0.1664048 0.96300006 8497526
-0.030103369 -0.16305998 0.96300006 8759397
-0.030103369 -0.16055135 0.96300006 8743516
-0.030103369 -0.15804276 0.96300006 4429102
-0.028430983 -0.15469794 0.96300006 6194242
-0.026758535 -0.15386172 0.96300006 4429102
-0.030103369 -0.15135312 0.96300006 6784585
-0.028430983 -0.15218934 0.96300006 8943965
-0.030103369 -0.14800829 0.96300006 6587453
-0.028430983 -0.14717208 0.96300006 7232851
-0.028430983 -0.14549966 0.96300006 4429102
-0.028430983 -0.14382727 0.96300006 4429102
-0.026758535 -0.14215484 0.96300006 7889745
-0.026201075 -0.13936751 0.96300006 4429102
-0.02508615 -0.13630143 0.96300006 4429102
-0.02508615 -0.13379282 0.96300006 11907494
-0.02508615 -0.12710318 0.96300006 4429102
-0.02508615 -0.12459454 0.96300006 7838286
-0.02508615 -0.12124972 0.96300006 7572808
-0.02508615 -0.11874112 0.96300006 10455679
-0.023413766 -0.11288768 0.96300006 6915654
-0.023413766 -0.10954286 0.96300006 6716458
-0.023413766 -0.10703424 0.96300006 8874772
-0.021741319 -0.097835973 0.96300006 4429102
-0.021741319 -0.095327355 0.96300006 4429102
-0.021741319 -0.09114635 0.96300006 4429102
-0.021741319 -0.088637725 0.96300006 4429102
-0.021741319 -0.086129121 0.96300006 4429102
-0.020068932 -0.085292906 0.96300006 4429102
-0.021741319 -0.083620518 0.96300006 10920358
-0.020068932 -0.082784303 0.96300006 7641962
-0.018396486 -0.079439484 0.96300006 7642217
-0.020068932 -0.076094665 0.96300006 7642467
-0.020068932 -0.073586017 0.96300006 9144979
-0.020068932 -0.071077421 0.96300006 4429102
-0.021741319 -0.066896386 0.96300006 4429102
-0.020068932 -0.064387783 0.96300006 4429102
-0.020068932 -0.061879184 0.96300006 10988722
-0.018396486 -0.058534369 0.96300006 4429102
-0.018396486 -0.056025743 0.96300006 4429102
-0.018396486 -0.053517118 0.96300006 1245459
-0.0167241 -0.049336083 0.96300006 527111
-0.0167241 -0.045991272 0.96300006 2897486
-0.018396486 -0.037629224 0.96300006 3624731
-0.018396486 -0.034284409 0.96300006 2708521
-0.018396486 -0.031775784 0.96300006 2170664
-0.020068932 -0.028430967 0.96300006 3888423
-0.020068932 -0.026758583 0.96300006 4429102
-0.021741319 -0.023413718 0.96300006 5665879
-0.030197149 -0.17782775 0.96600002 4429102
-0.028519554 -0.1753113 0.96600002 8431217
-0.028519554 -0.17279486 0.96600002 4429102
-0.028519554 -0.1669232 0.96600002 8497526
-0.028519554 -0.16356796 0.96600002 4429102
-0.028519554 -0.16021273 0.96600002 6849605
-0.028519554 -0.15769628 0.96600002 4429102
-0.028519554 -0.14930816 0.96600002 8217424
-0.026841896 -0.14427534 0.96600002 4429102
-0.025164301 -0.1409201 0.96600002 4429102
-0.021809049 -0.13924246 0.96600002 4429102
-0.022647878 -0.13672604 0.96600002 4429102
-0.022927489 -0.13309118 0.96600002 6855769
-0.023486707 -0.13001555 0.96600002 11904391
-0.023486707 -0.12749915 0.96600002 4429102
-0.023486707 -0.12498268 0.96600002 7968844
-0.023486707 -0.12162745 0.96600002 7705406
-0.023486707 -0.11743338 0.96600002 4429102
-0.022368267 -0.11519659 0.96600002 6196816
-0.021809049 -0.11240055 0.96600002 4429102
-0.021809049 -0.10988411 0.96600002 6716722
-0.021809049 -0.10652888 0.96600002 6389805
-0.021809049 -0.10317364 0.96600002 6915370
-0.021809049 -0.1006572 0.96600002 9600050
-0.020131454 -0.097301967 0.96600002 4429102
-0.021809049 -0.093946725 0.96600002 4429102
-0.020131454 -0.094785526 0.96600002 7244849
-0.020131454 -0.091430292 0.96600002 7509834
-0.020131454 -0.088075057 0.96600002 7707506
-0.018453795 -0.085558616 0.96600002 10986151
-0.018453795 -0.082203373 0.96600002 4429102
-0.018453795 -0.07633172 0.96600002 7642724
-0.018453795 -0.072976463 0.96600002 7180387
-0.018453795 -0.070460029 0.96600002 4429102
-0.019572236 -0.067663997 0.96600002 6330195
-0.018453795 -0.064588368 0.96600002 7444585
-0.018453795 -0.061233133 0.96600002 7708780
-0.0167762 -0.057039078 0.96600002 4429102
-0.0167762 -0.05536148 0.96600002 4429102
-0.015937403 -0.052845038 0.96600002 3820311
-0.015098606 -0.048650958 0.96600002 4429102
-0.0167762 -0.043618128 0.96600002 7897951
-0.0167762 -0.041101687 0.96600002 5657670
-0.0167762 -0.037746452 0.96600002 3624477
-0.0167762 -0.034391217 0.96600002 2774053
-0.018453795 -0.030197179 0.96600002 4429102
-0.0167762 -0.031874776 0.96600002 2237217
-0.018453795 -0.028519539 0.96600002 3822621
-0.019292625 -0.026003122 0.96600002 4748852
-0.020131454 -0.023486659 0.96600002 5533521
-0.028608123 -0.18006282 0.96900004 13287103
-0.028608123 -0.17838001 0.96900004 4429102
-0.026925255 -0.16996585 0.96900004 4429102
-0.026925255 -0.16155167 0.96900004 10255455
-0.026925255 -0.15313755 0.96900004 8746326
-0.028608123 -0.1514547 0.96900004 4429102
-0.026925255 -0.1514547 0.96900004 4429102
-0.026364319 -0.14864998 0.96900004 4429102
-0.023559647 -0.14893045 0.96900004 6652987
-0.026083853 -0.14556479 0.96900004 6587197
-0.023559647 -0.1447234 0.96900004 4429102
-0.02524245 -0.14304054 0.96900004 4429102
-0.023559647 -0.14135773 0.96900004 4429102
-0.0168283 -0.14135773 0.96900004 4429102
-0.023559647 -0.13967489 0.96900004 8087852
-0.019352539 -0.13967489 0.96900004 8221265
-0.0168283 -0.13967489 0.96900004 4429102
-0.022718213 -0.13715065 0.96900004 5993547
-0.019633017 -0.13743113 0.96900004 7108961
-0.021876778 -0.13462642 0.96900004 11052964
-0.020193972 -0.13378499 0.96900004 11055528
-0.021876778 -0.13041934 0.96900004 4429102
-0.020193972 -0.13041934 0.96900004 12498600
-0.021876778 -0.12705368 0.96900004 4429102
-0.020193972 -0.12789512 0.96900004 12103839
-0.021876778 -0.1245294 0.96900004 4429102
-0.020193972 -0.1245294 0.96900004 11839634
-0.021876778 -0.12200517 0.96900004 4429102
-0.020193972 -0.1228466 0.96900004 11510412
-0.022437736 -0.11891999 0.96900004 6394432
-0.020193972 -0.11779808 0.96900004 9731401
-0.019352539 -0.11527386 0.96900004 5672498
-0.020193972 -0.1119082 0.96900004 6914874
-0.019352539 -0.10938397 0.96900004 7244853
-0.020193972 -0.10685971 0.96900004 6848825
-0.020193972 -0.10349406 0.96900004 7244589
-0.019633017 -0.099847905 0.96900004 6065707
-0.018511105 -0.097604148 0.96900004 4429102
-0.018511105 -0.095079891 0.96900004 7179830
-0.018511105 -0.091714233 0.96900004 7443787
-0.0168283 -0.090872832 0.96900004 4429102
-0.018511105 -0.088348575 0.96900004 7706976
-0.0168283 -0.088348575 0.96900004 7707726
-0.018511105 -0.084141523 0.96900004 4429102
-0.0168283 -0.084982924 0.96900004 7773292
-0.0168283 -0.082458667 0.96900004 10920357
-0.016267367 -0.079653963 0.96900004 6593107
-0.0168283 -0.076568782 0.96900004 4429102
-0.0168283 -0.073203102 0.96900004 7311719
-0.0168283 -0.070678845 0.96900004 10721439
-0.018511105 -0.068996035 0.96900004 10264732
-0.0168283 -0.068154603 0.96900004 4429102
-0.016267367 -0.064508483 0.96900004 6461268
-0.015986899 -0.061423302 0.96900004 7774314
-0.015706431 -0.058338117 0.96900004 9152133
-0.015145496 -0.055533413 0.96900004 4429102
-0.015145496 -0.053850558 0.96900004 4429102
-0.015145496 -0.050484899 0.96900004 4429102
-0.015145496 -0.046277821 0.96900004 2510642
-0.015145496 -0.042912163 0.96900004 5993798
-0.015145496 -0.040387928 0.96900004 4429102
-0.015145496 -0.037863679 0.96900004 4429102
-0.015145496 -0.034498021 0.96900004 2839592
-0.015706431 -0.030851897 0.96900004 3698729
-0.015986899 -0.028608108 0.96900004 3821081
-0.018511105 -0.02524245 0.96900004 4429102
-0.0168283 -0.026925303 0.96900004 4429102
-0.018511105 -0.023559598 0.96900004 5401937
-0.027008615 -0.17808825 0.97200006 4429102
-0.025372701 -0.17845467 0.97400004 4429102
-0.027008615 -0.17555614 0.97200006 4429102
-0.025320601 -0.17555614 0.97200006 12499129
-0.023681212 -0.17507163 0.97400004 8431475
-0.027008615 -0.17302409 0.97200006 8365684
-0.025320601 -0.17302409 0.97200006 4429102
-0.022835437 -0.17253435 0.97400004 8037998
-0.027008615 -0.16880399 0.97200006 12631232
-0.025320601 -0.16964802 0.97200006 8431989
-0.022811124 -0.16982256 0.97300005 6397521
-0.027008615 -0.16627194 0.97200006 4429102
-0.025320601 -0.16627194 0.97200006 8628602
-0.022835437 -0.16661407 0.97400004 8628089
-0.027008615 -0.16373989 0.97200006 4429102
-0.025320601 -0.16289586 0.97200006 8235879
-0.023681212 -0.16323105 0.97400004 8433007
-0.027008615 -0.16036382 0.97200006 4429102
-0.025320601 -0.16036382 0.97200006 8475972
-0.027008615 -0.15783176 0.97200006 5996356
-0.025346652 -0.15799326 0.97300005 4429102
-0.023681212 -0.15731077 0.97400004 4429102
-0.013504308 -0.15698774 0.97200006 4429102
-0.011816293 -0.15698774 0.97200006 4429102
-0.025372701 -0.15477347 0.97400004 4429102
-0.022835437 -0.15477347 0.97400004 5475129
-0.020298174 -0.15477347 0.97400004 6654535
-0.013504308 -0.15529968 0.97200006 4429102
-0.011840606 -0.15561922 0.97400004 7497297
-0.025320601 -0.15107958 0.97200006 4429102
-0.022507202 -0.15136093 0.97200006 7636546
-0.01972043 -0.15100548 0.97333336 4429102
-0.021944508 -0.14854753 0.97200006 4429102
-0.020256493 -0.14854753 0.97200006 4429102
-0.016915133 -0.14800742 0.97400004 6719042
-0.025320601 -0.14685945 0.97200006 4429102
-0.022507202 -0.14629678 0.97200006 4429102
-0.019412454 -0.14601545 0.97200006 7437128
-0.016036393 -0.14517145 0.97200006 4429102
-0.022507202 -0.14292072 0.97200006 4429102
-0.019412454 -0.14263937 0.97200006 5475638
-0.015755057 -0.14292072 0.97200006 5999162
-0.013504308 -0.14263937 0.97200006 4429102
-0.011816293 -0.14179537 0.97200006 4429102
-0.015755057 -0.13898197 0.97200006 5604672
-0.013518201 -0.1394057 0.97300005 6455874
-0.011840606 -0.13870411 0.97400004 4429102
-0.018568415 -0.13588724 0.97200006 6651220
-0.016897768 -0.13602616 0.97300005 9075327
-0.018568415 -0.13335516 0.97200006 11518133
-0.016915133 -0.13362956 0.97400004 11123385
-0.018568415 -0.13082311 0.97200006 4429102
-0.016915133 -0.13109228 0.97400004 4429102
-0.019131109 -0.1271657 0.97200006 7053401
-0.016052023 -0.12757815 0.97300005 8365686
-0.018568415 -0.12407093 0.97200006 8233577
-0.016351305 -0.12404431 0.9740001 6988124
-0.019412454 -0.12153886 0.97200006 7838030
-0.01606939 -0.1209432 0.97400004 9938051
-0.019131109 -0.11928817 0.97200006 6394938
-0.016036393 -0.11816279 0.97200006 7376463
-0.013532094 -0.11840592 0.97400004 11508338
-0.016044209 -0.11568979 0.97250009 8947269
-0.013532094 -0.11586866 0.97400004 11179085
-0.018568415 -0.11225466 0.97200006 6981437
-0.016052023 -0.11237015 0.97300005 7441980
-0.018568415 -0.10803456 0.97200006 4429102
-0.016052023 -0.10899059 0.97300005 8883763
-0.013532094 -0.10994838 0.97400004 10587712
-0.018568415 -0.10634654 0.97200006 4429102
-0.016052023 -0.10645595 0.97300005 10190402
-0.018568415 -0.10381448 0.97200006 7638576
-0.016052023 -0.10392128 0.97300005 4429102
-0.018568415 -0.1012824 0.97200006 9072178
-0.016044207 -0.10049047 0.97250009 7629882
-0.013532094 -0.099799268 0.97400004 7953167
-0.016036393 -0.09706229 0.97200006 6455095
-0.013532094 -0.09726201 0.97400004 8611897
-0.016036393 -0.094530247 0.97200006 7047486
-0.013532094 -0.093878992 0.97400004 10190148
-0.015755057 -0.092279516 0.97200006 6394691
-0.013532094 -0.091341734 0.97400004 10389354
-0.015192387 -0.088622108 0.97200006 4429102
-0.013532094 -0.088804454 0.97400004 7707488
-0.015192387 -0.085246027 0.97200006 7773805
-0.013532094 -0.085421428 0.97400004 7839342
-0.015192387 -0.081869945 0.97200006 7707241
-0.013532094 -0.08203841 0.97400004 10985891
-0.013532094 -0.079501122 0.97400004 10986395
-0.015192387 -0.076805837 0.97200006 7708261
-0.013532094 -0.076963864 0.97400004 7444583
-0.015192387 -0.073429734 0.97200006 7445095
-0.013532094 -0.073580816 0.97400004 10133154
-0.015192387 -0.070053652 0.97200006 4429102
-0.013518201 -0.070124857 0.97300005 7510376
-0.011840606 -0.070197798 0.97400004 7312737
-0.015192387 -0.067521587 0.97200006 4429102
-0.013532094 -0.067660518 0.97400004 10591139
-0.011840606 -0.067660518 0.97400004 10593442
-0.015192387 -0.065833569 0.97200006 10722723
-0.013504308 -0.064989537 0.97200006 4429102
-0.011276755 -0.064841345 0.9740001 4429102
-0.013504308 -0.061613463 0.97200006 7774318
-0.011268651 -0.061979324 0.97333336 8888961
-0.013504308 -0.058237385 0.97200006 11512741
-0.011840606 -0.058357216 0.97400004 7905133
-0.013504308 -0.054861307 0.97200006 7181148
-0.011840606 -0.054974191 0.97400004 7970663
-0.013504308 -0.052329265 0.97200006 4429102
-0.013532094 -0.049899634 0.97400004 4016919
-0.013518201 -0.046467982 0.97300005 3164978
-0.013518201 -0.043090172 0.97300005 4429102
-0.013504308 -0.040512972 0.97200006 5257513
-0.011840606 -0.040596332 0.97400004 5653562
-0.013504308 -0.037980899 0.97200006 4429102
-0.011840606 -0.038059048 0.97400004 4429102
-0.013504308 -0.034604825 0.97200006 3102507
-0.011268651 -0.034370959 0.97333336 3698987
-0.013504308 -0.031228747 0.97200006 2965025
-0.010982674 -0.031260878 0.97300005 3828770
-0.0084575666 -0.03213875 0.97400004 3490589
-0.015192387 -0.027008662 0.97200006 4429102
-0.013518201 -0.027880456 0.97300005 4214315
-0.011840606 -0.027909979 0.97400004 4156717
-0.016036393 -0.025320601 0.97200006 4683567
-0.013532094 -0.025372701 0.97400004 4429102
-0.011840606 -0.025372701 0.97400004 4740910
-0.018568415 -0.021944525 0.97200006 4429102
-0.016044209 -0.02279982 0.97250009 4429102
-0.013532094 -0.023681166 0.97400004 5135946
-0.011840606 -0.023681166 0.97400004 4429102
-0.018606622 -0.02029814 0.97400004 4429102
-0.016915133 -0.02029814 0.97400004 8949612
-0.023754153 -0.17900433 0.97700006 8562550
-0.022057392 -0.17561086 0.97700006 4429102
-0.020360693 -0.17221741 0.97700006 12038063
-0.020360693 -0.16967233 0.97700006 12695994
-0.020360693 -0.16712725 0.97700006 12631227
-0.022057392 -0.16373381 0.97700006 8564338
-0.022905773 -0.16034037 0.97700006 7046722
-0.019512312 -0.16034037 0.97700006 6718784
-0.016967235 -0.159492 0.97700006 9005655
-0.013573774 -0.159492 0.97700006 10782036
-0.022057392 -0.1577953 0.97700006 8222824
-0.01922952 -0.15722972 0.97700012 6846288
-0.016118886 -0.15694693 0.97700006 6388801
-0.018663932 -0.15440185 0.97700006 8683865
-0.013573774 -0.15440185 0.97700006 8880723
-0.018663932 -0.1527051 0.97700006 4429102
-0.016967235 -0.15100835 0.97700006 9403985
-0.018663932 -0.14931166 0.97700006 9337682
-0.015270536 -0.13658623 0.97700006 6519880
-0.013573774 -0.13743457 0.97700006 4429102
-0.015270536 -0.13319279 0.97700006 7578733
-0.015270536 -0.13064769 0.97700006 4429102
-0.013573774 -0.12725426 0.97700006 12433336
-0.015270536 -0.12555751 0.97700006 12368056
-0.013573774 -0.12470916 0.97700006 12433335
-0.013573774 -0.12131572 0.97700006 12104601
-0.013573774 -0.11283211 0.97700006 10982200
-0.013573774 -0.10859029 0.97700006 10188110
-0.011877077 -0.11028704 0.97700006 10651970
-0.013573774 -0.10604522 0.97700006 10053712
-0.013573774 -0.10350015 0.97700006 8872494
-0.013573774 -0.1018034 0.97700006 7758110
-0.011877077 -0.10010666 0.97700006 4429102
-0.011877077 -0.09756159 0.97700006 6259763
-0.011877077 -0.094168141 0.97700006 7507773
-0.011877077 -0.091623075 0.97700006 10192750
-0.011877077 -0.089077979 0.97700006 4429102
-0.011877077 -0.08568453 0.97700006 7904621
-0.011877077 -0.082291096 0.97700006 7707498
-0.011877077 -0.078897648 0.97700006 7707493
-0.011877077 -0.076352552 0.97700006 4429102
-0.011028696 -0.073807456 0.97700006 5674311
-0.010180315 -0.070414007 0.97700006 7245915
-0.010180315 -0.067020573 0.97700006 4429102
-0.010180315 -0.061082032 0.97700006 4429102
-0.010180315 -0.058536962 0.97700006 7970412
-0.010180315 -0.05514352 0.97700006 7970418
-0.011028696 -0.052598447 0.97700006 7444322
-0.011877077 -0.050053328 0.97700006 4429102
-0.011877077 -0.046659887 0.97700006 3824694
-0.011877077 -0.043266442 0.97700006 5275719
-0.010180315 -0.039024625 0.97700006 4429102
-0.010180315 -0.037327927 0.97700006 4429102
-0.010180315 -0.03563118 0.97700006 4429102
-0.0084836176 -0.03054104 0.97700006 3491109
-0.010180315 -0.027995948 0.97700006 4156720
-0.0084836176 -0.028844295 0.97700006 4015917
-0.013573774 -0.022057407 0.97700006 6718560
-0.011028696 -0.022905756 0.97700006 4429102
-0.015836103 -0.019229529 0.97700012 6981715
-0.0084836176 -0.018663963 0.97700006 6974809
-0.022125121 -0.18040496 0.98000002 12763330
-0.022125121 -0.17870301 0.98000002 4429102
-0.020423213 -0.17785203 0.98000002 8496747
-0.019572228 -0.17529914 0.98000002 8365161
-0.018721242 -0.17274623 0.98000002 4429102
-0.018721242 -0.16934237 0.98000002 8496756
-0.017019333 -0.16849142 0.98000002 4429102
-0.019288566 -0.16565485 0.98000002 4429102
-0.016452033 -0.16565487 0.98000002 9941133
-0.019572228 -0.1633856 0.98000002 8693850
-0.01616838 -0.1633856 0.98000002 8694364
-0.015884729 -0.16111638 0.98000002 8491593
-0.01616838 -0.15402497 0.98000002 5541943
-0.013615455 -0.153174 0.98000002 4429102
-0.015317426 -0.15147205 0.98000002 9535572
-0.013615455 -0.15147205 0.98000002 9666903
-0.013615455 -0.13615468 0.98000002 4429102
-0.013615455 -0.13360178 0.98000002 7446631
-0.013615455 -0.13019791 0.98000002 8365684
-0.011913547 -0.12083728 0.98000002 4429102
-0.011913547 -0.11828437 0.98000002 8101983
-0.011913547 -0.11402955 0.98000002 4429102
-0.011913547 -0.1123276 0.98000002 4429102
-0.011913547 -0.10892373 0.98000002 4429102
-0.011913547 -0.10637084 0.98000002 7310915
-0.011062561 -0.10296698 0.98000002 6783022
-0.010211574 -0.10041405 0.98000002 9072939
-0.010211574 -0.097861156 0.98000002 4429102
-0.010211574 -0.095308281 0.98000002 10852436
-0.010211574 -0.090202458 0.98000002 4429102
-0.010211574 -0.085096687 0.98000002 4429102
-0.010211574 -0.082543775 0.98000002 7838827
-0.010211574 -0.079139911 0.98000002 7707493
-0.010211574 -0.076586999 0.98000002 4429102
-0.0085096667 -0.069779277 0.98000002 10397853
-0.0085096667 -0.067226365 0.98000002 7576938
-0.0085096667 -0.064673461 0.98000002 11184559
-0.0085096667 -0.062120572 0.98000002 11446701
-0.0085096667 -0.058716707 0.98000002 8035948
-0.0079423646 -0.055029184 0.98000002 9150851
-0.010211574 -0.051058002 0.98000002 4429102
-0.0076587126 -0.051908977 0.98000002 7971178
-0.005105787 -0.05275996 0.98000002 11380907
-0.010211574 -0.049356047 0.98000002 4429102
-0.007658713 -0.049356047 0.98000002 11644058
-0.010211574 -0.046803162 0.98000002 5930810
-0.0079423646 -0.04708682 0.98000002 4429102
-0.010211574 -0.043399297 0.98000002 5932874
-0.0085096667 -0.042548317 0.98000002 4429102
-0.010211574 -0.040846411 0.98000002 4280394
-0.0085096667 -0.039995432 0.98000002 3697708
-0.0085096667 -0.03744255 0.98000002 3360795
-0.0079423646 -0.034605987 0.98000002 4095016
-0.0068077594 -0.031485774 0.98000002 3959849
-0.010211574 -0.025529001 0.98000002 4872488
-0.010211574 -0.022125136 0.98000002 4429102
-0.0085096667 -0.023827044 0.98000002 4429102
-0.013615455 -0.019572228 0.98000002 7897441
-0.011062561 -0.019572228 0.98000002 5213754
-0.007658713 -0.020423181 0.98000002 4429102
-0.018778551 -0.17839646 0.98300004 4429102
-0.017071433 -0.17498219 0.98300004 12170423
-0.016217874 -0.17242149 0.98300004 8299632
-0.015933355 -0.17014527 0.98300004 7118940
-0.015364316 -0.16730005 0.98300004 4429102
-0.011950017 -0.15193574 0.98300004 4429102
-0.011096425 -0.14169289 0.98300004 6456369
-0.011950017 -0.1382786 0.98300004 4429102
-0.011950017 -0.12718217 0.98300004 8496755
-0.011096425 -0.12462147 0.98300004 8431219
-0.010811895 -0.12234527 0.98300004 7053400
-0.010242835 -0.11950002 0.98300004 12105647
-0.011096425 -0.11523218 0.98300004 4429102
-0.010242835 -0.11267145 0.98300004 4429102
-0.010242835 -0.11011075 0.98300004 7770169
-0.010242835 -0.10669647 0.98300004 7638337
-0.0085357167 -0.10669647 0.98300004 7970126
-0.0079666777 -0.10299766 0.98300004 6591293
-0.0085357167 -0.09986788 0.98300004 7507006
-0.0085357167 -0.097307153 0.98300004 11050609
-0.010242835 -0.093892872 0.98300004 4429102
-0.0085357167 -0.094746456 0.98300004 4429102
-0.010242835 -0.092185751 0.98300004 10585970
-0.0085357167 -0.091332167 0.98300004 7707737
-0.010242835 -0.087917879 0.98300004 4429102
-0.0085357167 -0.087917879 0.98300004 8167273
-0.0085357167 -0.085357182 0.98300004 4429102
-0.0085357167 -0.082796469 0.98300004 7905387
-0.0085357167 -0.079382181 0.98300004 10920094
-0.0079666777 -0.075683348 0.98300004 6461522
-0.0076821581 -0.073407166 0.98300004 7246688
-0.0073976386 -0.071130961 0.98300004 6263630
-0.0051214173 -0.069992885 0.98300004 9736860
-0.0068285996 -0.067432165 0.98300004 7380334
-0.0051214173 -0.068285719 0.98300004 9935782
-0.0068285996 -0.064017877 0.98300004 4429102
-0.0068285996 -0.061457153 0.98300004 4429102
-0.0068285996 -0.058896452 0.98300004 7970411
-0.0068285996 -0.056335751 0.98300004 11511725
-0.0051214173 -0.054628585 0.98300004 11446442
-0.0039833388 -0.051783353 0.98300004 9019779
-0.0017071173 -0.05292147 0.98300004 11380907
-0.0042678583 -0.049507137 0.98300004 11446452
-0.0068285996 -0.046092853 0.98300004 4429102
-0.0042678583 -0.046946432 0.98300004 7709028
-0.0017071173 -0.046092853 0.98300004 4429102
-0.0073976386 -0.043816678 0.98300004 7440962
-0.0051214173 -0.043532148 0.98300004 7562277
-0.0068285996 -0.040117867 0.98300004 4429102
-0.0051214173 -0.040117867 0.98300004 3236894
-0.0068285996 -0.03755717 0.98300004 3426071
-0.0051214173 -0.03755717 0.98300004 3491355
-0.0068285996 -0.03585 0.98300004 4429102
-0.0051214173 -0.034142885 0.98300004 4429102
-0.0051214173 -0.031582158 0.98300004 3960099
-0.0073976386 -0.027883356 0.98300004 4285225
-0.0085357167 -0.02560715 0.98300004 4429102
-0.0073976386 -0.022761907 0.98300004 5081919
-0.017106168 -0.17875944 0.98500007 8694388
-0.015395576 -0.17448288 0.98500007 4429102
-0.013684921 -0.16592984 0.98500007 12828091
-0.013684921 -0.1633639 0.98500007 12435081
-0.015395576 -0.15053427 0.98500007 4429102
-0.013684921 -0.15053427 0.98500007 4429102
-0.010263674 -0.14027059 0.98500007 8679999
-0.011404112 -0.13057709 0.98500007 4429102
-0.010263674 -0.12744093 0.98500007 4429102
-0.008553084 -0.12487502 0.98500007 12368056
-0.008553084 -0.12145379 0.98500007 4429102
-0.010263674 -0.11803256 0.98500007 4429102
-0.010263674 -0.11632192 0.98500007 11776652
-0.008553084 -0.1111901 0.98500007 4429102
-0.008553084 -0.10947946 0.98500007 4429102
-0.0068424931 -0.10691355 0.98500007 4429102
-0.0068424931 -0.10434765 0.98500007 11445388
-0.005131837 -0.10349233 0.98500007 8234599
-0.0068424931 -0.10007107 0.98500007 7904591
-0.005131837 -0.10007107 0.98500007 8234592
-0.0068424931 -0.09750513 0.98500007 11445890
-0.0068424931 -0.094939224 0.98500007 4429102
-0.0068424931 -0.091517992 0.98500007 7773027
-0.0068424931 -0.088952087 0.98500007 11709349
-0.0068424931 -0.085530847 0.98500007 11447212
-0.0068424931 -0.082964912 0.98500007 4429102
-0.0068424931 -0.079543687 0.98500007 7707240
-0.0068424931 -0.076977752 0.98500007 10526364
-0.005131837 -0.075267114 0.98500007 4429102
-0.005131837 -0.07355652 0.98500007 9998730
-0.0039914437 -0.071275689 0.98500007 6132559
-0.0039914437 -0.067284264 0.98500007 8231294
-0.005131837 -0.064148128 0.98500007 7839342
-0.005131837 -0.061582189 0.98500007 11381675
-0.005131837 -0.05901628 0.98500007 11380906
-0.004276542 -0.055595051 0.98500007 7904876
-0.0017105906 -0.051318504 0.98500007 11314861
-0.0017105906 -0.049607862 0.98500007 11380655
-0 -0.049607862 0.98500007 11380651
-0.0017105906 -0.047897272 0.98500007 11512483
-0 -0.047041953 0.98500007 4429102
-0.0034212465 -0.043620721 0.98500007 7049278
-0.0017105906 -0.043620721 0.98500007 7246653
-0.0034212465 -0.040199492 0.98500007 3237663
-0.0017105906 -0.040199492 0.98500007 3174427
-0.0034212465 -0.037633579 0.98500007 3491360
-0.004276542 -0.035067648 0.98500007 4429102
-0.0034212465 -0.031646416 0.98500007 4429102
-0.005131837 -0.02908048 0.98500007 4429102
-0.0068424931 -0.025659252 0.98500007 4429102
-0.005131837 -0.023093317 0.98500007 4749363
-0.004276542 -0.020527381 0.98500007 5997892
-0.015442466 -0.17673016 0.98800004 12434616
-0.0137266 -0.17158265 0.98800004 12499889
-0.013154667 -0.16872297 0.98800009 9875593
-0.0120108 -0.1664352 0.98800004 12828090
-0.0120108 -0.16386145 0.98800004 4429102
-0.0120108 -0.16128771 0.98800004 11440752
-0.0120108 -0.15614025 0.98800004 4429102
-0.010294934 -0.15614025 0.98800004 8749412
-0.0120108 -0.1544244 0.98800004 10191967
-0.010294934 -0.1544244 0.98800004 9733225
-0.0120108 -0.15099277 0.98800004 4429102
-0.010294934 -0.15270855 0.98800004 4429102
-0.015442466 -0.14927691 0.98800004 9272401
-0.012868701 -0.14927691 0.98800004 9271886
-0.010294934 -0.14412944 0.98800004 8347459
-0.0085791331 -0.14412944 0.98800004 4429102
-0.0077212332 -0.14241362 0.98800004 4429102
-0.010294934 -0.13898195 0.98800004 4429102
-0.0074352669 -0.14012587 0.98800009 5736764
-0.0120108 -0.13640822 0.98800004 7380077
-0.010294934 -0.13726614 0.98800004 7957378
-0.0120108 -0.13383451 0.98800004 4429102
-0.010294934 -0.13297659 0.98800004 8300150
-0.0085791331 -0.13211866 0.98800004 4429102
-0.0085791331 -0.13040285 0.98800004 12696254
-0.0085791331 -0.12782907 0.98800004 8496756
-0.0085791331 -0.1235395 0.98800004 12302263
-0.0074352669 -0.12067981 0.98800009 7053401
-0.0085791331 -0.11839205 0.98800004 4429102
-0.0080072004 -0.11553234 0.98800009 7053139
-0.0074352669 -0.11267262 0.98800009 6921558
-0.0068633333 -0.1098129 0.98800004 11773841
-0.0051474669 -0.10809711 0.98800004 4429102
-0.0042895665 -0.10638125 0.98800004 8234354
-0.0034316666 -0.10380753 0.98800004 4429102
-0.0034316666 -0.10123375 0.98800004 12039092
-0.0051474669 -0.096944198 0.98800004 8102244
-0.0051474669 -0.094370447 0.98800004 4429102
-0.0051474669 -0.091796726 0.98800004 7839591
-0.0068633333 -0.087507151 0.98800004 4429102
-0.0051474669 -0.088365078 0.98800004 7970668
-0.0051474669 -0.08493343 0.98800004 7905391
-0.0051474669 -0.082359701 0.98800004 4429102
-0.0051474669 -0.079785958 0.98800004 7641707
-0.0040036002 -0.076640248 0.98800009 8494207
-0.0034316666 -0.073780552 0.98800004 4429102
