# .PCD v0.7 - Point Cloud Data file format
VERSION 0.7
FIELDS x y z rgba
SIZE 4 4 4 4
TYPE F F F U
COUNT 1 1 1 1
WIDTH 1142
HEIGHT 1
VIEWPOINT 0 0 0 1 0 0 0
POINTS 1142
DATA ascii
0.20541294 -0.15131316 0.97350001 14671320
0.2081916 -0.15136093 0.97200006 14736858
0.211005 -0.15192361 0.97200006 14867673
0.23560315 -0.15115772 0.97250009 14933717
0.2385034 -0.15139043 0.97400004 14998741
0.24019492 -0.15054467 0.97400004 14801878
0.20298161 -0.14800742 0.97400004 14539479
0.20509687 -0.14854753 0.97200006 14539986
0.20762892 -0.14854753 0.97200006 14671317
0.23632561 -0.14854753 0.97200006 14868179
0.2385034 -0.14800742 0.97400004 14801878
0.24104065 -0.14800742 0.97400004 14605014
0.20298161 -0.14547016 0.97400004 14407894
0.20509687 -0.14601545 0.97200006 14473678
0.23632561 -0.14685945 0.97200006 14736853
0.23801365 -0.14517145 0.97200006 14603977
0.24104065 -0.14547016 0.97400004 14538698
0.20241778 -0.14265096 0.9740001 14407894
0.20530701 -0.14278612 0.97300005 14407378
0.20762892 -0.14263937 0.97200006 14407633
0.23632561 -0.14348339 0.97200006 14142397
0.23801365 -0.14263937 0.97200006 13814207
0.24104065 -0.14293288 0.97400004 13748416
0.24357793 -0.14208713 0.97400004 13355977
0.20241778 -0.13983177 0.9740001 14407639
0.20530787 -0.1394057 0.97300005 14342099
0.20784253 -0.1394057 0.97300005 14210770
0.23885769 -0.1392633 0.97200006 13421258
0.24188639 -0.13954985 0.97400004 13814473
0.24414176 -0.13926795 0.9740001 13618119
0.20298161 -0.13616684 0.97400004 14342353
0.20551889 -0.13616684 0.97400004 14407886
0.20784253 -0.13602616 0.97300005 14473675
0.23885769 -0.13588724 0.97200006 11039897
0.24132256 -0.13644876 0.9740001 12030632
0.24414176 -0.13588493 0.9740001 10309766
0.20298161 -0.13362956 0.97400004 14342093
0.20551889 -0.13362956 0.97400004 14342346
0.20762892 -0.13335516 0.97200006 14342338
0.2397017 -0.13335516 0.97200006 8655717
0.24188639 -0.13362956 0.97400004 8655717
0.24357793 -0.13362956 0.97400004 13683138
0.20298161 -0.13109228 0.97400004 14341838
0.20551889 -0.13109228 0.97400004 14210766
0.20762892 -0.13082311 0.97200006 14079697
0.2397017 -0.13082311 0.97200006 8655717
0.24188639 -0.13109228 0.97400004 13683136
0.24357793 -0.13109228 0.97400004 8655717
0.20298161 -0.12770927 0.97400004 14144210
0.20541294 -0.12764415 0.97350001 14145233
0.2081916 -0.12772839 0.97200006 14144980
0.2397017 -0.12744704 0.97200006 8655717
0.24188639 -0.12770927 0.97400004 13486527
0.24357793 -0.12770927 0.97400004 10972819
0.20241778 -0.12404431 0.9740001 14144465
0.20520194 -0.12413518 0.97250003 14079444
0.20762892 -0.12407093 0.97200006 14144722
0.24138972 -0.12407093 0.97200006 13290432
0.24442367 -0.12432622 0.97400004 8655717
0.20298161 -0.1209432 0.97400004 14210767
0.20551889 -0.1209432 0.97400004 14210513
0.20847294 -0.12153886 0.97200006 14144719
0.24138972 -0.12153886 0.97200006 8655717
0.24453887 -0.12114175 0.97333336 10045818
0.24780673 -0.12009746 0.97400004 10839683
0.20298161 -0.11840592 0.97400004 13947853
0.20551889 -0.11840592 0.97400004 13882062
0.20847294 -0.11900682 0.97200006 14078925
0.24380831 -0.11880653 0.97266674 10112379
0.24780673 -0.11840592 0.97400004 10709650
0.20551889 -0.11586866 0.97400004 14013130
0.20762892 -0.11563075 0.97200006 13947595
0.24417359 -0.1157497 0.97300005 8655717
0.24780673 -0.11586867 0.97400004 8655717
0.25034395 -0.11502289 0.97400004 8655717
0.2520355 -0.11502289 0.97400004 8655717
0.20551889 -0.11248563 0.97400004 13486789
0.20847294 -0.11225466 0.97200006 13618119
0.24417359 -0.11237015 0.97300005 10971533
0.24780673 -0.11248564 0.97400004 10577293
0.25034395 -0.11163987 0.97400004 12570048
0.25259933 -0.11220372 0.9740001 8655717
0.25541854 -0.11248564 0.97400004 4852308
0.20530701 -0.10899059 0.97300005 13092288
0.24138972 -0.10972261 0.97200006 8655717
0.24417359 -0.1089906 0.97300005 9517941
0.24780673 -0.10910261 0.97400004 8655717
0.25034395 -0.10994838 0.97400004 8655717
0.2520355 -0.10994838 0.97400004 12633501
0.25541854 -0.10994838 0.97400004 1180482
0.20298161 -0.10656536 0.97400004 13289156
0.20509687 -0.10634654 0.97200006 13289153
0.24138972 -0.10634654 0.97200006 13359045
0.24417359 -0.10645595 0.97300005 11039892
0.24780673 -0.10656536 0.97400004 8655717
0.25541854 -0.10656536 0.97400004 852305
0.20298161 -0.10402808 0.97400004 13552839
0.20530701 -0.10392128 0.97300005 13618625
0.20762892 -0.10297047 0.97200006 13817280
0.24392179 -0.10381448 0.97200006 8655717
0.24780671 -0.10402808 0.97400004 9977980
0.25034395 -0.10487383 0.97400004 8655717
0.20241778 -0.10036312 0.9740001 13882058
0.20530701 -0.1005417 0.97300005 13881543
0.24392179 -0.10043837 0.97200006 10906772
0.24780673 -0.10064504 0.97400004 9780861
0.25034395 -0.10064504 0.97400004 8655717
0.20298161 -0.09726201 0.97400004 13882062
0.20551889 -0.09726201 0.97400004 13815755
0.20762892 -0.097906321 0.97200006 13815756
0.24420314 -0.097343639 0.97200006 8655717
0.24755317 -0.09716215 0.97300005 9780854
0.25034395 -0.09726201 0.97400004 11170698
0.2520355 -0.098107778 0.97400004 8655717
0.20298161 -0.093878992 0.97400004 13686209
0.20425285 -0.094530247 0.97200006 14078663
0.2447658 -0.094530247 0.97200006 8655717
0.24755317 -0.0946275 0.97300005 8655717
0.20298161 -0.091341734 0.97400004 13030083
0.20446299 -0.092091963 0.97300005 14013378
0.2447658 -0.092842191 0.97200006 12896958
0.24718675 -0.091779374 0.97266674 9981317
0.25034395 -0.091341734 0.97400004 8655717
0.20241778 -0.089086376 0.9740001 12766656
0.20551889 -0.087958708 0.97400004 13947335
0.20762892 -0.087778099 0.97200006 13553352
0.24755317 -0.088713273 0.97300005 9912703
0.25034395 -0.088804454 0.97400004 14144202
0.20298161 -0.085421428 0.97400004 13029583
0.20551889 -0.085421428 0.97400004 13947081
0.20762892 -0.085246027 0.97200006 13553096
0.24755317 -0.085333727 0.97300005 8655717
0.25034395 -0.085421428 0.97400004 8655717
0.20298161 -0.081192665 0.97400004 13684178
0.20541294 -0.081996731 0.97350001 13749196
0.20762892 -0.081869945 0.97200006 13618377
0.24742553 -0.081912503 0.97250009 9583988
0.25034395 -0.08203841 0.97400004 12366249
0.2520355 -0.081192665 0.97400004 8655717
0.20298161 -0.079501122 0.97400004 13749709
0.20530701 -0.079419501 0.97300005 13683911
0.20762892 -0.07933788 0.97200006 13618629
0.2481419 -0.07933788 0.97200006 8655717
0.25034395 -0.079501122 0.97400004 12566953
0.25288123 -0.079501122 0.97400004 8655717
0.20298161 -0.076963864 0.97400004 13749708
0.20530701 -0.076884851 0.97300005 13749960
0.20762892 -0.075961806 0.97200006 13553354
0.2481419 -0.076805837 0.97200006 8655717
0.25034395 -0.076963864 0.97400004 13290689
0.25288123 -0.076963864 0.97400004 10919092
0.25541854 -0.077809632 0.97400004 8655717
0.20298161 -0.073580816 0.97400004 13618633
0.20520194 -0.07346794 0.97250009 13618376
0.2481419 -0.074273735 0.97200006 8655717
0.25056395 -0.073199339 0.97266674 10375045
0.25288123 -0.074426562 0.97400004 8655717
0.25541854 -0.074426562 0.97400004 8655717
0.20298161 -0.070197798 0.97400004 13552841
0.20541294 -0.070161328 0.97350001 13552584
0.20762892 -0.06920965 0.97200006 13552327
0.25288123 -0.070197798 0.97400004 11510453
0.2559824 -0.069915883 0.9740001 7553397
0.20298161 -0.067660518 0.97400004 13552838
0.20551889 -0.067660518 0.97400004 13487048
0.20762892 -0.067521587 0.97200006 13487048
0.25288123 -0.067660518 0.97400004 10254235
0.2562643 -0.067660518 0.97400004 6688872
0.20298161 -0.06512326 0.97400004 13946548
0.20551889 -0.06512326 0.97400004 14012084
0.20762892 -0.065833569 0.97200006 13750730
0.25151795 -0.064989537 0.97200006 8655717
0.25394237 -0.064753354 0.97266674 10916762
0.25541854 -0.065969028 0.97400004 8655717
0.20298161 -0.061740242 0.97400004 10724964
0.20481554 -0.061894804 0.97200006 10331492
0.2481419 -0.060769431 0.97200006 8655717
0.25067392 -0.061613463 0.97200006 8143441
0.25372699 -0.061740242 0.97400004 4082247
0.25541854 -0.061740242 0.97400004 7222090
0.20298161 -0.058357216 0.97400004 4735492
0.20509687 -0.058237385 0.97200006 4538373
0.25067392 -0.058237385 0.97200006 6500920
0.25405002 -0.058237385 0.97200006 5909812
0.25658211 -0.057393353 0.97200006 8655717
0.25827011 -0.057393353 0.97200006 8655717
0.20298161 -0.055819962 0.97400004 3757581
0.20520194 -0.054889094 0.97250003 4084753
0.20762892 -0.054017279 0.97200006 3822864
0.25067392 -0.054861307 0.97200006 7545424
0.25394234 -0.0551797 0.97266674 3623436
0.25619429 -0.054617014 0.97266674 6430024
0.25827011 -0.054861307 0.97200006 4722492
0.20636465 -0.052436937 0.97400004 4150291
0.20762892 -0.052329265 0.97200006 3953682
0.25067392 -0.052329265 0.97200006 6435384
0.25372699 -0.052436937 0.97400004 3756300
0.25600034 -0.052383102 0.97300005 8655717
0.25827011 -0.052329265 0.97200006 8655717
0.20636465 -0.049899634 0.97400004 4150295
0.20762892 -0.04979717 0.97200006 4019223
0.25151795 -0.04979717 0.97200006 6435386
0.25346649 -0.049849272 0.97300005 3821592
0.2562643 -0.049899634 0.97400004 5777473
0.25880152 -0.049053866 0.97400004 8655717
0.20636465 -0.046516612 0.97400004 4151575
0.2081916 -0.046702441 0.97200006 3823389
0.25067392 -0.046421096 0.97200006 6369849
0.25372699 -0.046516612 0.97400004 3886353
0.2562643 -0.046516612 0.97400004 7150423
0.25880152 -0.04736238 0.97400004 8655717
0.20868656 -0.0430893 0.97300005 4611089
0.25039262 -0.042763676 0.97200006 5782061
0.25316316 -0.043415509 0.9740001 4476683
0.2562643 -0.043133583 0.97400004 4928561
0.25880152 -0.043133587 0.97400004 5315655
0.20636465 -0.040596332 0.97400004 6121514
0.20762892 -0.040512972 0.97200006 6778926
0.25067392 -0.040512972 0.97200006 7355448
0.25372699 -0.040596332 0.97400004 5986053
0.20615277 -0.038020842 0.97300005 7309634
0.20762892 -0.037980899 0.97200006 7178316
0.2481419 -0.038824908 0.97200006 8655717
0.2498299 -0.038824908 0.97200006 4871427
0.23584454 -0.19851661 0.97700006 14671062
0.23754127 -0.19851661 0.97700006 14671318
0.20304124 -0.19568877 0.97700012 15199456
0.20530353 -0.19597155 0.97700006 15394784
0.23584454 -0.19681993 0.97700006 14737112
0.20275843 -0.19342647 0.97700006 14669525
0.23584454 -0.19342647 0.97700006 14868187
0.23754127 -0.19342647 0.97700006 14737114
0.20021334 -0.19088137 0.97700006 14142678
0.20191008 -0.19088137 0.97700006 13748688
0.23584454 -0.19088137 0.97700006 15064796
0.23754127 -0.19088137 0.97700006 14868188
0.20021334 -0.18748793 0.97700006 14802907
0.20275843 -0.18748793 0.97700006 15067358
0.20530353 -0.18663958 0.97700006 15527137
0.23584454 -0.18833628 0.97700006 15065309
0.23867244 -0.18777072 0.97700012 14868187
0.20021334 -0.18494286 0.97700006 15198435
0.20275845 -0.1840945 0.97700006 15263456
0.23923801 -0.1840945 0.97700006 14933464
0.24093473 -0.1840945 0.97700006 14868180
0.20275843 -0.1815494 0.97700006 15263199
0.23923801 -0.1815494 0.97700006 14933466
0.24093473 -0.1815494 0.97700006 14933465
0.20275843 -0.17900433 0.97700006 15328987
0.20530353 -0.17815596 0.97700006 15262940
0.23923801 -0.17900433 0.97700006 14999260
0.24093473 -0.17985269 0.97700006 14999772
0.19964778 -0.17532808 0.97700012 11237478
0.20191008 -0.17561086 0.97700006 15591848
0.23923801 -0.17561086 0.97700006 15065305
0.24093473 -0.17645921 0.97700006 14999261
0.19936499 -0.17221741 0.97700006 11117694
0.20191008 -0.17221741 0.97700006 15855033
0.23923801 -0.17221741 0.97700006 15065809
0.19936499 -0.16967233 0.97700006 11901056
0.23923801 -0.16967233 0.97700006 15065299
0.24093473 -0.16967233 0.97700006 14999759
0.20021334 -0.16797562 0.97700006 12626563
0.20191008 -0.16712725 0.97700006 15526321
0.24178308 -0.16712725 0.97700006 14868440
0.20304124 -0.1640166 0.97700012 15328720
0.24178308 -0.16373381 0.97700006 14801880
0.24432817 -0.16373381 0.97700006 14736602
0.20021334 -0.16034037 0.97700006 11639660
0.20275843 -0.16034037 0.97700006 15330252
0.24263144 -0.16034037 0.97700006 14737624
0.24432817 -0.16034037 0.97700006 14868443
0.24602488 -0.16034037 0.97700006 14999000
0.19936499 -0.15694693 0.97700006 8865638
0.20191008 -0.15609854 0.97700006 15066797
0.23923801 -0.1577953 0.97700006 14933977
0.24263144 -0.15694693 0.97700006 14933722
0.24432817 -0.15694693 0.97700006 14934237
0.24602488 -0.15694693 0.97700006 14933722
0.19936499 -0.15440185 0.97700006 8538200
0.20191008 -0.15440185 0.97700006 15065262
0.24178308 -0.15440185 0.97700006 14868439
0.24432817 -0.15440185 0.97700006 14802649
0.20021334 -0.15185672 0.97700006 11780295
0.20191008 -0.15185672 0.97700006 14934226
0.24206588 -0.15213951 0.97700012 14736085
0.24432817 -0.15185672 0.97700006 14605270
0.20191008 -0.14846329 0.97700006 14605528
0.24432817 -0.14846329 0.97700006 14539729
0.24602488 -0.14846329 0.97700006 14539986
0.20021334 -0.14422147 0.97700006 14473428
0.20191008 -0.14506984 0.97700006 14473429
0.24432817 -0.14506984 0.97700006 14143178
0.24659047 -0.14478706 0.97700012 14077378
0.20021334 -0.14252478 0.97700006 14472916
0.24687324 -0.14252478 0.97700006 13355456
0.19936499 -0.13997968 0.97700006 14473173
0.20191008 -0.13913132 0.97700006 14473429
0.24715602 -0.14026247 0.97700012 13683905
0.24941835 -0.13913132 0.97700006 14471875
0.19936499 -0.13658623 0.97700006 14342358
0.20191008 -0.13658623 0.97700006 14276819
0.24715602 -0.13686901 0.97700012 12160675
0.24941835 -0.13743457 0.97700006 8655717
0.19964778 -0.13347559 0.97700012 14276051
0.20191008 -0.13319279 0.97700006 14407376
0.24687323 -0.13319279 0.97700006 11234450
0.20021334 -0.13064769 0.97700006 14341586
0.20191008 -0.13064769 0.97700006 14341840
0.24602488 -0.13064769 0.97700006 8655717
0.20021334 -0.12810263 0.97700006 14211028
0.20191008 -0.12810263 0.97700006 14210771
0.24602488 -0.12810263 0.97700006 10841494
0.20021334 -0.12470916 0.97700006 14144209
0.20191008 -0.12555751 0.97700006 14144210
0.24772161 -0.12470916 0.97700006 8655717
0.24941835 -0.12386081 0.97700006 8655717
0.20021334 -0.12131572 0.97700006 14144206
0.20191008 -0.12131572 0.97700006 14210254
0.24772161 -0.12216406 0.97700006 8655717
0.2502667 -0.12131572 0.97700006 8655717
0.25394297 -0.12103294 0.97700012 8655717
0.25620523 -0.12131572 0.97700006 8655717
0.20021334 -0.11792228 0.97700006 14144204
0.20247565 -0.1176395 0.97700012 14078924
0.25111505 -0.11792228 0.97700006 12504530
0.25366014 -0.11792227 0.97700006 8803961
0.20021334 -0.11537718 0.97700006 14341576
0.20275843 -0.11537718 0.97700006 14144966
0.25450853 -0.11537718 0.97700006 8655717
0.25620523 -0.11537718 0.97700006 393535
0.20021334 -0.11198373 0.97700006 13617093
0.20275843 -0.11283211 0.97700006 13552320
0.25111505 -0.11368048 0.97700006 8655717
0.25450853 -0.11368048 0.97700006 8655717
0.20021334 -0.11028704 0.97700006 13353413
0.20275843 -0.10943867 0.97700006 13222845
0.25111505 -0.10859029 0.97700006 8655717
0.25394297 -0.10915588 0.97700012 8075630
0.25620523 -0.10859029 0.97700006 1376842
0.20021334 -0.10604522 0.97700006 13353928
0.20191008 -0.10604522 0.97700006 13354182
0.25111505 -0.10689359 0.97700006 13358028
0.25366014 -0.10604522 0.97700006 10110585
0.25620523 -0.10519684 0.97700006 393556
0.20021334 -0.10350015 0.97700006 13750997
0.20191008 -0.10350015 0.97700006 13619919
0.25111505 -0.10350015 0.97700006 8655717
0.25366014 -0.10350015 0.97700006 11435404
0.25620523 -0.10350015 0.97700006 393558
0.20021334 -0.10095502 0.97700006 13882060
0.20191008 -0.1018034 0.97700006 13882060
0.25366014 -0.10095502 0.97700006 9979768
0.25620523 -0.10095502 0.97700006 4524636
0.20021334 -0.09756159 0.97700006 13618881
0.20191008 -0.09756159 0.97700006 13882568
0.25394294 -0.097278796 0.97700012 8077691
0.25620523 -0.098409966 0.97700006 8655717
0.20021334 -0.094168141 0.97700006 13289157
0.20191008 -0.094168141 0.97700006 13419459
0.2505495 -0.093885355 0.97700012 8655717
0.25281179 -0.094168141 0.97700006 8655717
0.19936499 -0.091623075 0.97700006 12694442
0.20191008 -0.091623075 0.97700006 12105142
0.25366014 -0.091623075 0.97700006 8086667
0.20021334 -0.089077979 0.97700006 11706503
0.20191008 -0.088229626 0.97700006 12300711
0.25337738 -0.089360766 0.97700012 10457758
0.20021334 -0.08568453 0.97700006 11970445
0.20191008 -0.08568453 0.97700006 11974062
0.25366014 -0.085684538 0.97700006 9005710
0.25733638 -0.085401759 0.97700012 8655717
0.20247565 -0.082573883 0.97700012 13290449
0.25394294 -0.082573883 0.97700012 9143959
0.25705361 -0.082291096 0.97700006 6628178
0.20191008 -0.078897648 0.97700006 13749195
0.25620523 -0.079746 0.97700006 8655717
0.20191008 -0.076352552 0.97700006 13683916
0.25705361 -0.076352552 0.97700006 6180981
0.20191008 -0.073807456 0.97700006 13619147
0.25450853 -0.07295911 0.97700006 11523279
0.25733641 -0.073524676 0.97700012 8655717
0.20021334 -0.070414007 0.97700006 13618635
0.20191008 -0.070414007 0.97700006 13552842
0.25790197 -0.07126236 0.97700006 4587873
0.20021334 -0.067020573 0.97700006 13617864
0.20191008 -0.067020573 0.97700006 13618375
0.20021334 -0.064475477 0.97700006 13881269
0.20191008 -0.064475477 0.97700006 13947053
0.20021334 -0.061930403 0.97700006 11711354
0.20191008 -0.061930403 0.97700006 11447151
0.20191008 -0.058536962 0.97700006 4801284
0.2036068 -0.054295145 0.97700006 4478731
0.2036068 -0.052598447 0.97700006 4281866
0.20530353 -0.052598447 0.97700006 4347406
0.2036068 -0.050053328 0.97700006 4216323
0.20530353 -0.050053328 0.97700006 4281613
0.25959867 -0.0509017 0.97700006 1774103
0.2036068 -0.047508258 0.97700006 4478724
0.20530353 -0.046659887 0.97700006 4544782
0.25959867 -0.045811512 0.97700006 8655717
0.20530353 -0.043266442 0.97700006 5070094
0.20700027 -0.043266442 0.97700006 4807701
0.20530353 -0.039872997 0.97700006 6191409
0.20530353 -0.037327927 0.97700006 8160836
0.2036068 -0.03563118 0.97700006 8229449
0.20530353 -0.03563118 0.97700006 7765835
0.20082812 -0.19572233 0.98000002 15200746
0.20253007 -0.19742428 0.98000002 15460578
0.23997261 -0.1965733 0.98000002 14671318
0.20082812 -0.19402041 0.98000002 14735071
0.23997261 -0.19316943 0.98000002 14671320
0.24167456 -0.19231845 0.98000002 14736600
0.23997261 -0.19061656 0.98000002 14802394
0.24167456 -0.19061656 0.98000002 14802392
0.24167456 -0.18806365 0.98000002 14867926
0.24337646 -0.18721269 0.98000002 14867926
0.20082812 -0.18380883 0.98000002 15263716
0.24337646 -0.18465978 0.98000002 14868438
0.20082812 -0.18125591 0.98000002 15395038
0.24337646 -0.18125591 0.98000002 14933464
0.20082812 -0.17870301 0.98000002 13883338
0.24167456 -0.17870301 0.98000002 14999520
0.24337646 -0.17785203 0.98000002 14933976
0.24167456 -0.17529914 0.98000002 14999770
0.24337646 -0.17529914 0.98000002 14933978
0.24167456 -0.17274623 0.98000002 14999756
0.24337646 -0.17189527 0.98000002 14999760
0.19912621 -0.16849142 0.98000002 9727588
0.24422744 -0.16934237 0.98000002 14934235
0.24678035 -0.16849142 0.98000002 14935003
0.19997717 -0.1659385 0.98000002 10390133
0.2450784 -0.16678946 0.98000002 14736862
0.24678035 -0.1659385 0.98000002 14802393
0.19997716 -0.1633856 0.98000002 10058603
0.20253007 -0.1633856 0.98000002 15526827
0.24763131 -0.1633856 0.98000002 14671063
0.19912621 -0.1608327 0.98000002 7826011
0.24848229 -0.1608327 0.98000002 14736853
0.25018421 -0.1608327 0.98000002 14540248
0.24848229 -0.15742885 0.98000002 14801110
0.25103515 -0.15827982 0.98000002 14867415
0.19742428 -0.15487595 0.98000002 7487489
0.19912621 -0.153174 0.98000002 6449538
0.24678035 -0.15402497 0.98000002 14736854
0.19742428 -0.15147205 0.98000002 11123120
0.19912621 -0.15147205 0.98000002 10933961
0.24678035 -0.15147205 0.98000002 14605269
0.19742428 -0.14806819 0.98000002 15065819
0.20026082 -0.14863551 0.98000002 14933977
0.24848229 -0.14891917 0.98000002 14539988
0.25131881 -0.14863551 0.98000002 14801106
0.19742428 -0.14466433 0.98000002 14539219
0.19969353 -0.14579897 0.98000002 14539220
0.24848229 -0.14636628 0.98000002 14406343
0.25103515 -0.14551531 0.98000002 14472145
0.19685698 -0.14182779 0.98000002 14407635
0.19912621 -0.14296241 0.98000002 14472915
0.2507515 -0.14239511 0.98000002 14013384
0.19742428 -0.13955855 0.98000002 14408408
0.19742428 -0.13700563 0.98000002 14407899
0.25018421 -0.13615468 0.98000002 8655717
0.19742428 -0.13445273 0.98000002 14342102
0.19912621 -0.13275082 0.98000002 14276051
0.25018421 -0.13360178 0.98000002 11366293
0.19912621 -0.13019791 0.98000002 14276306
0.24848229 -0.13019791 0.98000002 8655717
0.25018421 -0.13019791 0.98000002 8655717
0.19912621 -0.127645 0.98000002 14276818
0.24848229 -0.127645 0.98000002 13419725
0.25018421 -0.127645 0.98000002 8655717
0.19912621 -0.12509209 0.98000002 14210254
0.25103515 -0.12509209 0.98000002 11169687
0.25358808 -0.12424114 0.98000002 8655717
0.25529 -0.12424114 0.98000002 5389442
0.19912621 -0.12168823 0.98000002 14209996
0.25188613 -0.12253918 0.98000002 8655717
0.25358808 -0.12253918 0.98000002 8655717
0.19912621 -0.11828437 0.98000002 14275533
0.25699195 -0.11828437 0.98000002 8655717
0.19969353 -0.11459686 0.98000002 14144710
0.19912621 -0.1123276 0.98000002 13749186
0.19969353 -0.10949105 0.98000002 13157314
0.19742428 -0.10722182 0.98000002 13421767
0.19912621 -0.10637084 0.98000002 13422536
0.19912621 -0.10296698 0.98000002 13947342
0.19912621 -0.10041405 0.98000002 13750475
0.19912621 -0.097861156 0.98000002 13420733
0.25699195 -0.09701018 0.98000002 65876
0.19912621 -0.094457299 0.98000002 13093311
0.25614098 -0.094457299 0.98000002 8655717
0.19912621 -0.090202458 0.98000002 11777430
0.25699195 -0.091053441 0.98000002 4983904
0.19912621 -0.088500544 0.98000002 10727577
0.25614098 -0.088500544 0.98000002 8611983
0.19912621 -0.08594764 0.98000002 12038053
0.25699195 -0.086798593 0.98000002 8655717
0.19997716 -0.082543775 0.98000002 13422021
0.19997716 -0.079139911 0.98000002 13815497
0.19997716 -0.076586999 0.98000002 13749708
0.20026082 -0.073750444 0.98000002 13684173
0.19742428 -0.071481183 0.98000002 13618126
0.19912621 -0.07063023 0.98000002 13683916
0.19742428 -0.066375412 0.98000002 13684168
0.19912621 -0.067226365 0.98000002 13617608
0.19912621 -0.064673461 0.98000002 13881021
0.19912621 -0.062120572 0.98000002 11911303
0.20082812 -0.058716707 0.98000002 4735237
0.20082812 -0.055312842 0.98000002 4085521
0.20253007 -0.055312842 0.98000002 4085774
0.20253007 -0.051908981 0.98000002 4150794
0.20253007 -0.049356047 0.98000002 4281863
0.20423201 -0.045952182 0.98000002 4675848
0.20423201 -0.044250272 0.98000002 4874248
0.20423201 -0.039995432 0.98000002 6059567
0.20253007 -0.03744255 0.98000002 9345618
0.20423201 -0.03744255 0.98000002 8755266
0.24241439 -0.19802864 0.98300004 14802132
0.24412149 -0.19802864 0.98300004 14867155
0.19973579 -0.19632147 0.98300004 15397603
0.24241439 -0.19632147 0.98300004 14736598
0.19916674 -0.19404531 0.98300004 15065557
0.24241439 -0.19461437 0.98300004 14671063
0.24412149 -0.19376078 0.98300004 14671321
0.19973579 -0.19034648 0.98300004 14473427
0.24412149 -0.19034648 0.98300004 14867928
0.19973579 -0.18693221 0.98300004 14935010
0.24582864 -0.18693221 0.98300004 14736344
0.19973579 -0.1843715 0.98300004 15263718
0.24582864 -0.1843715 0.98300004 14801113
0.19973579 -0.1818108 0.98300004 15461077
0.24582864 -0.1818108 0.98300004 14801879
0.25351077 -0.18095723 0.98300004 16051434
0.19973579 -0.17839646 0.98300004 10660496
0.24582864 -0.17839646 0.98300004 14868179
0.24497506 -0.17498219 0.98300004 14933975
0.24582864 -0.17242149 0.98300004 14999768
0.19802864 -0.16900721 0.98300004 10392133
0.24582864 -0.17071432 0.98300004 15000540
0.24753579 -0.17071432 0.98300004 15065562
0.25009653 -0.16900721 0.98300004 14671064
0.19802864 -0.16730005 0.98300004 9935451
0.24981201 -0.16616195 0.98300004 14539735
0.2526572 -0.16559292 0.98300004 15130840
0.19802864 -0.1630322 0.98300004 9202511
0.2509501 -0.16388576 0.98300004 14342872
0.2526572 -0.1630322 0.98300004 15130588
0.19802864 -0.16047147 0.98300004 8812369
0.19802864 -0.15705718 0.98300004 8213040
0.2509501 -0.15705718 0.98300004 14670549
0.2526572 -0.15705718 0.98300004 15064021
0.19802864 -0.15364291 0.98300004 6762072
0.25009653 -0.15449649 0.98300004 14736340
0.2526572 -0.15449649 0.98300004 15064018
0.19888222 -0.15022862 0.98300004 15459531
0.25038105 -0.15136671 0.98300004 14670803
0.25351077 -0.15108219 0.98300004 15130840
0.25436437 -0.14852147 0.98300004 15525856
0.19802864 -0.14681433 0.98300004 14605015
0.25436437 -0.14596075 0.98300004 15201998
0.25379533 -0.14226195 0.98300004 12103598
0.2526572 -0.13913219 0.98300004 9926293
0.2526572 -0.1365715 0.98300004 8655717
0.19802864 -0.13315721 0.98300004 14341844
0.2526572 -0.13401076 0.98300004 10320025
0.19802864 -0.13059647 0.98300004 14341841
0.2526572 -0.12974292 0.98300004 8655717
0.25607151 -0.12974292 0.98300004 8655717
0.19802864 -0.12718217 0.98300004 14276557
0.25322628 -0.12689765 0.98300004 9785735
0.25607151 -0.12718217 0.98300004 8655717
0.19802864 -0.12462147 0.98300004 14210762
0.19802864 -0.12206075 0.98300004 14144714
0.19802864 -0.11864646 0.98300004 14144463
0.19802864 -0.11523218 0.98300004 14144198
0.19802864 -0.11267145 0.98300004 13816000
0.19802864 -0.11011075 0.98300004 13420224
0.19802864 -0.10584289 0.98300004 13619145
0.19802864 -0.10328218 0.98300004 13816012
0.19802864 -0.09986788 0.98300004 13553350
0.19802864 -0.097307153 0.98300004 13288116
0.19802864 -0.094746456 0.98300004 13092536
0.25948581 -0.094746456 0.98300004 8655717
0.19802864 -0.091332167 0.98300004 12433063
0.19632149 -0.088771462 0.98300004 11842727
0.19802864 -0.087917879 0.98300004 11383990
0.19802864 -0.085357182 0.98300004 11781564
0.19802864 -0.082796469 0.98300004 13159358
0.19802864 -0.079382181 0.98300004 13683914
0.1985977 -0.075683348 0.98300004 13618638
0.19802864 -0.073407166 0.98300004 13618642
0.19632149 -0.070846438 0.98300004 13552587
0.19802864 -0.069992885 0.98300004 13552843
0.19632149 -0.067432165 0.98300004 13552840
0.19802864 -0.068285719 0.98300004 13553097
0.19632149 -0.06487143 0.98300004 13750474
0.19802864 -0.064017877 0.98300004 13424578
0.19973579 -0.058896452 0.98300004 4734474
0.19916674 -0.055197641 0.98300004 4347408
0.20144291 -0.052067883 0.98300004 4347150
0.20144291 -0.049507137 0.98300004 4412942
0.20258102 -0.047230959 0.98300004 4544266
0.20315005 -0.043532148 0.98300004 4808202
0.2048572 -0.042678569 0.98300004 5004552
0.20315005 -0.040117867 0.98300004 5992508
0.19973579 -0.03755717 0.98300004 8491863
0.20144291 -0.03755717 0.98300004 8887651
0.20229648 -0.03585 0.98300004 8560735
0.24718411 -0.19843154 0.98500007 14539219
0.24975005 -0.19843154 0.98500007 14079955
0.19672093 -0.1950103 0.98500007 15722456
0.19843154 -0.19672091 0.98500007 15592925
0.24461818 -0.19672091 0.98500007 14735830
0.24718413 -0.1958656 0.98500007 14538967
0.25032026 -0.19558051 0.98500007 14538451
0.25402659 -0.1950103 0.98500007 14800591
0.19672093 -0.19329968 0.98500007 15132372
0.19843154 -0.19329968 0.98500007 14934222
0.24718411 -0.19329968 0.98500007 14670813
0.24975005 -0.19329968 0.98500007 14800858
0.25402659 -0.19329968 0.98500007 15395287
0.19672093 -0.19073376 0.98500007 14603721
0.19843154 -0.19073376 0.98500007 14538703
0.24718413 -0.19073378 0.98500007 14736598
0.25060534 -0.19073376 0.98500007 14999508
0.25402659 -0.19073376 0.98500007 15986661
0.19672093 -0.18731253 0.98500007 14869472
0.19843154 -0.18731253 0.98500007 14869733
0.24803942 -0.18731253 0.98500007 14605269
0.25089046 -0.18702742 0.98500007 14933466
0.25488189 -0.18731253 0.98500007 16184551
0.19672093 -0.18474662 0.98500007 15263718
0.19843154 -0.1838913 0.98500007 15329255
0.24803942 -0.1838913 0.98500007 14670039
0.25060534 -0.1838913 0.98500007 15064538
0.25431168 -0.18417642 0.98500007 16053481
0.19843154 -0.18132541 0.98500007 15592627
0.24803942 -0.18132541 0.98500007 14801366
0.25060534 -0.18132541 0.98500007 15065307
0.19672093 -0.17790413 0.98500007 11376499
0.19843154 -0.17875944 0.98500007 11512181
0.24803942 -0.17875944 0.98500007 14801622
0.25060534 -0.17875946 0.98500007 14802396
0.19843154 -0.17533821 0.98500007 9334609
0.24746923 -0.1750531 0.98500007 14868698
0.25060534 -0.17533821 0.98500007 14735583
0.19843154 -0.17191698 0.98500007 10389576
0.24803942 -0.1727723 0.98500007 14999769
0.25060534 -0.17191698 0.98500007 14802907
0.25317127 -0.17106165 0.98500007 15327713
0.25317127 -0.16935107 0.98500007 15262175
0.19843154 -0.16592984 0.98500007 9601137
0.25146067 -0.16764042 0.98500007 14539481
0.25402659 -0.16678512 0.98500007 15526111
0.25488189 -0.1633639 0.98500007 15921379
0.19843154 -0.15908737 0.98500007 8479839
0.25431168 -0.16022778 0.98500007 15723229
0.25488189 -0.15481082 0.98500007 15461085
0.25659251 -0.15481082 0.98500007 15461096
0.19672093 -0.15053427 0.98500007 15525061
0.25488189 -0.15224487 0.98500007 15330015
0.25659251 -0.15138957 0.98500007 15396333
0.19615071 -0.14825344 0.98500007 14737370
0.25659251 -0.14796834 0.98500007 15922144
0.19672093 -0.14540242 0.98500007 14473682
0.25659251 -0.14540242 0.98500007 13824185
0.19329968 -0.14198118 0.98500007 14342102
0.1958656 -0.1428365 0.98500007 14342100
0.19615071 -0.13970038 0.98500007 14341847
0.25488189 -0.13941526 0.98500007 8344695
0.19672093 -0.13599403 0.98500007 14407894
0.25488189 -0.13599403 0.98500007 8655717
0.19672093 -0.13342813 0.98500007 14407378
0.25488189 -0.13342813 0.98500007 8655717
0.25659251 -0.13342813 0.98500007 8655717
0.19672093 -0.13086219 0.98500007 14341840
0.25431168 -0.1311473 0.98500007 9063287
0.25659251 -0.13171749 0.98500007 4981098
0.19672093 -0.12744093 0.98500007 14342095
0.25488189 -0.12829626 0.98500007 8655717
0.19615071 -0.12430482 0.98500007 14210510
0.19672093 -0.12145379 0.98500007 14144205
0.19672093 -0.11888786 0.98500007 14078414
0.19672093 -0.11546662 0.98500007 14012870
0.19672093 -0.1120454 0.98500007 13749954
0.19672093 -0.10947946 0.98500007 13552582
0.19615071 -0.10662845 0.98500007 11840730
0.19672093 -0.10349233 0.98500007 13684428
0.19672093 -0.10007107 0.98500007 13553862
0.19672093 -0.09750513 0.98500007 13287868
0.19672093 -0.094939224 0.98500007 13026748
0.19672093 -0.091517992 0.98500007 12630177
0.26001376 -0.091517992 0.98500007 5048883
0.19329968 -0.088952087 0.98500007 12758948
0.19558051 -0.087811664 0.98500007 10655691
0.26001376 -0.088952087 0.98500007 8655717
0.1958656 -0.085530847 0.98500007 9671130
0.1958656 -0.082964912 0.98500007 11841232
0.1958656 -0.079543687 0.98500007 12235992
0.19672093 -0.076122433 0.98500007 13552844
0.1958656 -0.07355652 0.98500007 13553100
0.19501029 -0.070990592 0.98500007 8285435
0.19501029 -0.06756936 0.98500007 10853602
0.19558051 -0.063863032 0.98500007 13688272
0.1958656 -0.061582189 0.98500007 13420678
0.19843154 -0.061582189 0.98500007 12235367
0.19672093 -0.05901628 0.98500007 4868901
0.19843154 -0.05901628 0.98500007 4736015
0.19615071 -0.055309948 0.98500007 5463129
0.19843154 -0.056450371 0.98500007 3560984
0.19672093 -0.053029139 0.98500007 8285435
0.19928685 -0.052173823 0.98500007 5462853
0.19928685 -0.049607862 0.98500007 6381958
0.19957197 -0.047327064 0.98500007 4610320
0.20185277 -0.046186633 0.98500007 4676108
0.20014217 -0.043620721 0.98500007 4808216
0.20185277 -0.043620721 0.98500007 4808204
0.20014217 -0.040199492 0.98500007 5596735
0.20185277 -0.040199492 0.98500007 5794378
0.25308442 -0.19732006 0.98800004 14144202
0.25222653 -0.19388841 0.98800004 14999253
0.19560423 -0.19045675 0.98800004 14406845
0.19560423 -0.18788303 0.98800004 14475483
0.25051072 -0.18874095 0.98800004 14736592
0.25394234 -0.18788303 0.98800004 15526632
0.19732007 -0.18359345 0.98800004 15459811
0.25394234 -0.18359345 0.98800004 15724522
0.19732007 -0.18101972 0.98800004 14543279
0.25394234 -0.18016182 0.98800004 15722986
0.25394234 -0.17844597 0.98800004 15656936
0.19732007 -0.17587224 0.98800004 9528905
0.25394234 -0.17587224 0.98800004 15460325
0.19646215 -0.17244059 0.98800004 10391382
0.25394234 -0.17329851 0.98800004 15394020
0.19674814 -0.16929492 0.98800009 10851428
0.19732007 -0.1664352 0.98800004 10721136
0.19646215 -0.16386145 0.98800004 10390600
0.19646215 -0.16042981 0.98800004 9930051
0.19732007 -0.15614025 0.98800004 8544046
0.25565818 -0.15785606 0.98800004 15527389
0.19646215 -0.1544244 0.98800004 7356025
0.19646215 -0.15185066 0.98800004 12893114
0.19388841 -0.14927691 0.98800004 14147037
0.19560423 -0.1475611 0.98800004 14737111
0.19388841 -0.14412944 0.98800004 14539221
0.19560423 -0.14498734 0.98800004 14539219
0.1921726 -0.14241362 0.98800004 8285435
0.19388841 -0.13983989 0.98800004 14210772
0.19560423 -0.13898195 0.98800004 14342103
0.19388841 -0.13640822 0.98800004 14341842
0.19560423 -0.13640822 0.98800004 14407636
0.19388841 -0.13297659 0.98800004 11313638
0.19560423 -0.13297659 0.98800004 14276304
0.19388841 -0.13040285 0.98800004 14210501
0.19560423 -0.13040285 0.98800004 14276816
0.19388841 -0.12782907 0.98800004 14210485
0.19560423 -0.12782907 0.98800004 14276816
0.19045676 -0.1235395 0.98800004 8285435
0.19331649 -0.12411146 0.98800009 12104387
0.19560423 -0.1235395 0.98800004 14079439
0.19331649 -0.12125175 0.98800009 10061775
0.19560423 -0.12096578 0.98800004 14144974
0.19388841 -0.11839205 0.98800004 8285435
0.19560423 -0.11839205 0.98800004 14210509
0.19045676 -0.1166762 0.98800004 11247165
0.19331649 -0.11553234 0.98800009 12300729
0.19560423 -0.11581831 0.98800004 11247841
0.19303051 -0.11238664 0.98800004 11049658
0.19560423 -0.11238665 0.98800004 13750470
0.19560423 -0.108955 0.98800004 8285435
0.19388841 -0.10638125 0.98800004 8285435
0.19388841 -0.10380753 0.98800004 11116007
0.19560423 -0.10380753 0.98800004 11050468
0.19388841 -0.10037585 0.98800004 11116257
0.19560423 -0.10037585 0.98800004 10985185
0.19388841 -0.096944198 0.98800004 10524639
0.19560423 -0.096944198 0.98800004 10590174
0.19388841 -0.094370447 0.98800004 8285435
0.19560423 -0.094370447 0.98800004 12896190
0.26252148 -0.094370447 0.98800004 8655717
0.19388841 -0.091796726 0.98800004 12958883
0.19560423 -0.091796726 0.98800004 10457797
0.26252148 -0.092654653 0.98800004 8655717
0.19274454 -0.08807911 0.98800009 11118023
0.19331649 -0.084647462 0.98800009 11707089
0.19045676 -0.082359701 0.98800004 14208967
0.19303051 -0.082359701 0.98800004 10918882
0.19303051 -0.079785958 0.98800004 9602544
0.19303051 -0.076354273 0.98800004 9602287
0.19560423 -0.076354273 0.98800004 8285435
0.19303051 -0.072922625 0.98800004 10919138
0.19388841 -0.070348904 0.98800004 8285435
0.19388841 -0.067775153 0.98800004 10853602
0.19388841 -0.064343497 0.98800004 11181004
0.19388841 -0.06176975 0.98800004 8285435
0.19560423 -0.060053952 0.98800004 8156749
0.19560423 -0.058338102 0.98800004 2635048
0.19331649 -0.055478405 0.98800009 6840744
0.19560423 -0.0566223 0.98800004 3755779
0.19388841 -0.053190649 0.98800004 8285435
0.19617617 -0.052046753 0.98800009 4544263
0.19674814 -0.048615083 0.98800009 5922402
0.19732007 -0.046327304 0.98800004 8285435
0.1990359 -0.046327304 0.98800004 8285435
0.19732007 -0.043753579 0.98800004 6645138
0.1990359 -0.043753579 0.98800004 4874020
0.19732007 -0.041179851 0.98800004 8285435
0.1990359 -0.040321928 0.98800004 5662772
0.19732007 -0.037748203 0.98800004 8285435
0.19960785 -0.0366043 0.98800009 8227931
0.19619818 -0.1961982 0.99100006 15591388
0.19619818 -0.18501145 0.99100006 15394785
0.19619818 -0.18156938 0.99100006 14871749
0.19619818 -0.17812729 0.99100006 11833181
0.19619818 -0.17554572 0.99100006 8878664
0.19677186 -0.15776172 0.99100006 9730892
0.19447714 -0.15403278 0.99100006 9338488
0.19619818 -0.15317225 0.99100006 10980782
0.19447714 -0.15145124 0.99100006 13418928
0.19361663 -0.14886966 0.99100006 14344411
0.19361663 -0.14542761 0.99100006 14605013
0.1904614 -0.14227238 0.99100006 8285435
0.19275613 -0.14112502 0.99100006 8285435
0.19103509 -0.13940397 0.99100006 8285435
0.19275613 -0.13940397 0.99100006 14341842
0.19103509 -0.13682243 0.99100006 11313637
0.19275613 -0.13682243 0.99100006 8285435
0.19275613 -0.13338035 0.99100006 11313638
0.19275613 -0.12993827 0.99100006 11182043
0.19275613 -0.12735669 0.99100006 8285435
0.18931404 -0.12391462 0.99100006 12825172
0.19275613 -0.12563568 0.99100006 13681282
0.1904614 -0.12161994 0.99100006 8285435
0.19275613 -0.12047256 0.99100006 8285435
0.19103509 -0.11875155 0.99100006 8285435
0.19275613 -0.11789101 0.99100006 10524846
0.19103509 -0.11530948 0.99100006 8285435
0.19103509 -0.11272791 0.99100006 10850477
0.19390348 -0.10957267 0.99100006 10128869
0.19103509 -0.10670427 0.99100006 8285435
0.19275613 -0.10670427 0.99100006 8285435
0.19275613 -0.10412273 0.99100006 11050214
0.19103509 -0.10154114 0.99100006 8285435
0.19275613 -0.10068063 0.99100006 11116513
0.19103509 -0.09723857 0.99100006 8285435
0.19275613 -0.09723857 0.99100006 8285435
0.19275613 -0.094657004 0.99100006 8285435
0.19275613 -0.092075467 0.99100006 8285435
0.19017456 -0.088633388 0.99100006 8944102
0.187593 -0.085191324 0.99100006 10327772
0.19017456 -0.085191324 0.99100006 9206761
0.19275613 -0.086051852 0.99100006 8285435
0.187593 -0.08260978 0.99100006 12631485
0.18931404 -0.08260978 0.99100006 13420481
0.19017455 -0.080028221 0.99100006 8285435
0.19103509 -0.076586127 0.99100006 13684428
0.19103509 -0.073144048 0.99100006 10984929
0.19447714 -0.060236301 0.99100006 8752208
0.19447714 -0.058515243 0.99100006 8285435
0.19447714 -0.0516311 0.99100006 4478735
0.19447714 -0.049049534 0.99100006 8285435
0.19619818 -0.049910039 0.99100006 4675340
0.19447714 -0.046467971 0.99100006 8285435
0.19619818 -0.046467971 0.99100006 4806946
0.19447714 -0.044746961 0.99100006 8285435
0.19619818 -0.043886431 0.99100006 4807974
0.19677186 -0.040157519 0.99100006 5860911
0.19619818 -0.037862822 0.99100006 7438675
0.19333965 -0.19679214 0.99400002 15460584
0.19592899 -0.19592901 0.99400002 15264222
0.19592899 -0.19333965 0.99400002 14603471
0.19506587 -0.19161338 0.99400002 14141129
0.19506587 -0.18816088 0.99400002 14607832
0.19506587 -0.1847084 0.99400002 15526108
0.19506587 -0.18211904 0.99400002 15265492
0.19333965 -0.17780341 0.99400002 11836060
0.19506587 -0.17866653 0.99400002 13018757
0.19506587 -0.15795158 0.99400002 9993554
0.19161339 -0.15363593 0.99400002 8285435
0.19333965 -0.15449907 0.99400002 8285435
0.19161339 -0.15104659 0.99400002 10062026
0.19333965 -0.15190972 0.99400002 8285435
0.19161339 -0.14845721 0.99400002 8285435
0.19333965 -0.14845721 0.99400002 15000282
0.19103798 -0.14558014 0.99400008 10457583
0.19333965 -0.14673094 0.99400002 14801879
0.18988714 -0.14155224 0.99400002 8285435
0.18988714 -0.13896286 0.99400002 11313636
0.18988714 -0.13637348 0.99400002 8285435
0.18816088 -0.13464727 0.99400002 8285435
0.19075027 -0.13378413 0.99400002 11313888
0.19075026 -0.13033164 0.99400002 10785688
0.19075026 -0.12687913 0.99400002 8285435
0.18816088 -0.12428975 0.99400002 12164935
0.18816088 -0.12256352 0.99400002 12101688
0.18988714 -0.12083726 0.99400002 12429614
0.18988714 -0.1182479 0.99400002 10514450
0.18988714 -0.11565854 0.99400002 8285435
0.18988714 -0.11220605 0.99400002 12826221
0.19161339 -0.10961667 0.99400002 10850747
0.19333965 -0.10875356 0.99400002 13682088
0.18816088 -0.10702729 0.99400002 11904130
0.19046256 -0.10587649 0.99400008 8285435
0.19075027 -0.1035748 0.99400002 13880773
0.19046256 -0.10069772 0.99400008 10194410
0.18988714 -0.097532935 0.99400002 10721505
0.19161339 -0.094080448 0.99400002 10722015
0.19161339 -0.091491066 0.99400002 8285435
0.18816088 -0.088901706 0.99400002 9934803
0.18729776 -0.081996724 0.99400002 10523612
0.18816088 -0.079407372 0.99400002 8285435
0.18988714 -0.076817967 0.99400002 10919395
0.19161339 -0.069912985 0.99400002 11309768
0.19333965 -0.069912985 0.99400002 11115747
0.19161339 -0.067323633 0.99400002 8285435
0.19333965 -0.067323633 0.99400002 8285435
0.19161339 -0.06473425 0.99400002 7487104
0.19333965 -0.06473425 0.99400002 10131379
0.19161339 -0.061281763 0.99400002 4938320
0.19333965 -0.061281763 0.99400002 8285435
0.19161339 -0.058692381 0.99400002 8876374
0.19333965 -0.058692381 0.99400002 8285435
0.19103798 -0.055815317 0.99400008 7170240
0.19333965 -0.056966163 0.99400002 5528834
0.19161339 -0.052650537 0.99400002 5394825
0.19333965 -0.052650537 0.99400002 5855112
0.19161339 -0.049198024 0.99400002 5922950
0.19333965 -0.049198024 0.99400002 6251139
0.19333965 -0.046608642 0.99400002 8285435
0.19333965 -0.044019289 0.99400002 6448018
0.19506587 -0.043156154 0.99400002 4742441
0.19506587 -0.040566795 0.99400002 7107209
0.19333965 -0.037977442 0.99400002 8285435
0.19506587 -0.037977442 0.99400002 8285435
0.19305743 -0.1956546 0.99700004 15263715
0.1956546 -0.1956546 0.99700004 15069663
0.19046025 -0.19392316 0.99700004 15329753
0.19305743 -0.19305742 0.99700004 14934743
0.19046025 -0.19046026 0.99700004 14605521
0.19305743 -0.19046026 0.99700004 14209744
0.1956546 -0.19046026 0.99700004 13749456
0.18872876 -0.18786305 0.99700004 14867918
0.19046025 -0.18786305 0.99700004 14802901
0.19305743 -0.18786305 0.99700004 14869200
0.1956546 -0.18699734 0.99700004 15525594
0.19046025 -0.18440014 0.99700004 11577324
0.19305743 -0.18440014 0.99700004 15131100
0.19046025 -0.18093723 0.99700004 8285435
0.19305743 -0.18093723 0.99700004 13617621
0.18872876 -0.17834005 0.99700004 12834947
0.19046025 -0.17834005 0.99700004 12437606
0.19219171 -0.17834005 0.99700004 8285435
0.19392316 -0.17660856 0.99700004 8477815
0.1956546 -0.17574283 0.99700004 9143897
0.19738606 -0.16968274 0.99700004 10191727
0.19738606 -0.16795132 0.99700004 10458736
0.1956546 -0.16362266 0.99700004 10259529
0.19392316 -0.16015975 0.99700004 10123858
0.1956546 -0.16102549 0.99700004 10322761
0.19305743 -0.15756258 0.99700004 9537622
0.19046025 -0.15496537 0.99700004 8678315
0.19219171 -0.15583111 0.99700004 8285435
0.18815163 -0.15121388 0.9970001 10727370
0.19046025 -0.15150246 0.99700004 8285435
0.18786304 -0.14803955 0.99700004 9996527
0.19046025 -0.14803955 0.99700004 11576299
0.18786304 -0.14544238 0.99700004 14539225
0.18786304 -0.14284518 0.99700004 11379176
0.18815163 -0.13967083 0.9970001 8285435
0.18872876 -0.13678508 0.99700004 14604741
0.18872876 -0.13332216 0.99700004 14009989
0.18815163 -0.13043642 0.9970001 13089094
0.18815163 -0.12755063 0.9970001 11111814
0.18699731 -0.12466487 0.99700004 8285435
0.18786304 -0.12206769 0.99700004 10124942
0.18872876 -0.11860479 0.99700004 8285435
0.18872876 -0.11514187 0.99700004 8285435
0.19046025 -0.11427613 0.99700004 12497995
0.18786304 -0.11254471 0.99700004 9466261
0.18526588 -0.11081322 0.99700004 10196293
0.18786304 -0.1099475 0.99700004 9469135
0.19046025 -0.1099475 0.99700004 10587556
0.18526588 -0.10735032 0.99700004 12429422
0.18757448 -0.10619603 0.9970001 9535186
0.18786304 -0.10302167 0.99700004 10984414
0.18786304 -0.1004245 0.99700004 8285435
0.18872876 -0.0978273 0.99700004 10656223
0.18872876 -0.09436439 0.99700004 10721758
0.19046025 -0.09436439 0.99700004 8285435
0.18757448 -0.091190055 0.9970001 8285435
0.19046025 -0.091767192 0.99700004 12172425
0.18699731 -0.088304281 0.99700004 8285435
0.18699731 -0.085707113 0.99700004 10656987
0.18526588 -0.083109945 0.99700004 8285435
0.18699731 -0.08137846 0.99700004 12761783
0.18699731 -0.079647027 0.99700004 8285435
0.18872876 -0.077049814 0.99700004 10854116
0.18872876 -0.073586896 0.99700004 8285435
0.19046025 -0.073586896 0.99700004 11115999
0.19046025 -0.070123993 0.99700004 12368270
0.18872876 -0.067526817 0.99700004 8285435
0.19046025 -0.067526817 0.99700004 8409857
0.18526588 -0.064063914 0.99700004 854534
0.18815163 -0.064641058 0.9970001 2959704
0.19046025 -0.064929634 0.99700004 4129025
0.18786304 -0.061466716 0.99700004 6581432
0.19046025 -0.061466716 0.99700004 6843836
0.18526588 -0.057138089 0.99700004 8285435
0.18786304 -0.058003806 0.99700004 7891923
0.19046025 -0.058003806 0.99700004 8285435
0.18786304 -0.055406611 0.99700004 5194282
0.18815163 -0.053098023 0.9970001 4008031
0.19046025 -0.05280944 0.99700004 4995979
0.18872876 -0.049346507 0.99700004 2102037
0.19046025 -0.049346507 0.99700004 8285435
0.19046025 -0.045883596 0.99700004 8285435
0.19219171 -0.045883596 0.99700004 8285435
0.19219171 -0.043286402 0.99700004 4544801
0.19392316 -0.04068923 0.99700004 7040894
0.19046025 -0.038092062 0.99700004 6389821
0.19219171 -0.038092062 0.99700004 8285435
0.19016501 -0.19624333 1 15591395
0.18755999 -0.19363835 1 15197905
0.18987557 -0.19334891 1 15067090
0.18582335 -0.19016501 1 14866377
0.18755999 -0.19016501 1 14800576
0.18929668 -0.19103335 1 14801098
0.18582335 -0.18756002 1 14998225
0.18755999 -0.18756002 1 14933456
0.18582335 -0.18582334 1 8285435
0.18755999 -0.18495502 1 11643375
0.18929668 -0.18495502 1 14935264
0.18755999 -0.18148166 1 15526610
0.18929668 -0.18148166 1 8285435
0.18582335 -0.17887667 1 8285435
0.18755999 -0.17887667 1 13756832
0.19016501 -0.17714 1 8285435
0.19277002 -0.17714 1 8149852
0.19103333 -0.17540334 1 8285435
0.19450669 -0.17540334 1 9339475
0.19103333 -0.17193002 1 8285435
0.19624333 -0.17279834 1 10060124
0.19103333 -0.17019331 1 8285435
0.19624333 -0.16932499 1 9736294
0.19624333 -0.16671999 1 11048794
0.19103333 -0.16498336 1 9995318
0.19363835 -0.16324666 1 8877225
0.19045445 -0.16035223 1 9270394
0.19277002 -0.16064167 1 8285435
0.18987557 -0.1574578 1 8812435
0.18495502 -0.15456332 1 8285435
0.18755999 -0.15456332 1 8285435
0.18929668 -0.15456332 1 8728144
0.18495502 -0.15195832 1 8350423
0.18755999 -0.15282667 1 8285435
0.18234999 -0.14935334 1 8285435
0.18495502 -0.148485 1 9800175
0.18495502 -0.14501166 1 9865202
0.18582335 -0.14240669 1 14539474
0.18582335 -0.14066999 1 8285435
0.18755999 -0.13893336 1 8285435
0.18582335 -0.13546003 1 8285435
0.18755999 -0.13632834 1 11248350
0.18582335 -0.13372333 1 13019742
0.18755999 -0.13372333 1 13480012
0.18582335 -0.13111836 1 10653589
0.18755999 -0.13198671 1 8285435
0.18582335 -0.12764499 1 8285435
0.18755999 -0.12677667 1 8285435
0.18582335 -0.12417166 1 10388130
0.18582335 -0.12156665 1 8285435
0.18755999 -0.12156665 1 11365397
0.18582335 -0.11896166 1 9403283
0.18755999 -0.11896166 1 8285435
0.18582335 -0.11548834 1 8680065
0.18755999 -0.11548834 1 8876926
0.18234999 -0.11114667 1 12557893
0.18466556 -0.11230446 1 9272770
0.18234999 -0.10941003 1 8285435
0.18495502 -0.10941003 1 8285435
0.18234999 -0.10767333 1 8285435
0.18466556 -0.10651558 1 9865163
0.184955 -0.10333166 1 10853091
0.18495502 -0.10072667 1 8285435
0.18582335 -0.098121658 1 8285435
0.18755999 -0.098121658 1 10590686
0.18582335 -0.094648331 1 10787546
0.18755999 -0.094648331 1 10721756
0.18495502 -0.091175005 1 10589144
0.18582335 -0.088569999 1 8285435
0.18582335 -0.085965008 1 10852312
0.18495502 -0.082491674 1 10523607
0.18582335 -0.079018347 1 10458077
0.18755999 -0.078150004 1 13357008
0.18755999 -0.076413311 1 8285435
0.18582335 -0.072939985 1 8285435
0.18755999 -0.073808327 1 11312562
0.18582335 -0.071203344 1 8285435
0.18755999 -0.070335001 1 8285435
0.18929668 -0.070335001 1 8806293
0.18582335 -0.067730017 1 2228481
0.18755999 -0.067730017 1 3473921
0.18234999 -0.065993316 1 8285435
0.18466556 -0.065414444 1 3156564
0.18755999 -0.065993316 1 8285435
0.18234999 -0.060783353 1 8285435
0.184955 -0.061651669 1 8285435
0.18234999 -0.05904666 1 9405797
0.18466556 -0.058467783 1 9602455
0.18234999 -0.055573333 1 7697483
0.18495502 -0.055573333 1 6707774
0.18582335 -0.052100003 1 788245
0.18755999 -0.052100003 1 854028
0.18755999 -0.049494989 1 8285435
0.18755999 -0.046021663 1 8285435
0.18929668 -0.046021663 1 5790595
0.19016501 -0.043416649 1 4676628
0.19045445 -0.041101113 1 7367852
0.19277002 -0.040811665 1 6974850
0.18929668 -0.038206682 1 8285435
0.18289706 -0.18986456 1.003 14537163
0.18463895 -0.18986456 1.003 14736077
0.18289706 -0.1863808 1.003 14607318
0.18463895 -0.18725175 1.003 8285435
0.18463895 -0.18463896 1.003 8285435
0.18638082 -0.18463896 1.003 8285435
0.18463895 -0.18202612 1.003 11905002
0.18638082 -0.18202612 1.003 11906286
0.18812267 -0.17767142 1.003 11837305
0.19044518 -0.1747683 1.003 8942521
0.19334832 -0.1750586 1.003 9666365
0.1950902 -0.17418766 1.003 10257745
0.18986456 -0.1724458 1.003 8285435
0.19334832 -0.1724458 1.003 10981967
0.1950902 -0.1724458 1.003 10390608
0.19044518 -0.16954267 1.003 9205954
0.19334832 -0.16983299 1.003 11307349
0.1950902 -0.16983299 1.003 10522462
0.19160643 -0.16722016 1.003 8285435
0.19334832 -0.16634923 1.003 9139877
0.1950902 -0.16634923 1.003 10256478
0.19160643 -0.16373642 1.003 9337392
