# .PCD v0.7 - Point Cloud Data file format
VERSION 0.7
FIELDS x y z rgba
SIZE 4 4 4 4
TYPE F F F U
COUNT 1 1 1 1
WIDTH 1117
HEIGHT 1
VIEWPOINT 0 0 0 1 0 0 0
POINTS 1117
DATA ascii
-0.037994802 0.2417171 0.93100005 1581249
-0.040377501 0.24468765 0.93000007 5855549
-0.03799567 0.24494988 0.93100011 2764693
-0.038762428 0.24791786 0.93000007 67060
-0.034799322 0.24764173 0.93200004 2237843
-0.040377501 0.25034052 0.93000007 67060
-0.03768567 0.2508789 0.93000007 1317556
-0.034762274 0.25060856 0.93100011 2502508
-0.032371469 0.25087887 0.93200004 3754247
-0.033917077 0.25357071 0.93000007 67060
-0.031831954 0.25357652 0.93200004 1383601
-0.031247281 0.2564455 0.9306668 2570330
-0.028594792 0.25681365 0.93200004 3223634
-0.031494461 0.25922355 0.93000007 2834777
-0.028293774 0.25950229 0.93100005 3355975
-0.025897149 0.259781 0.93200004 7111700
-0.031494461 0.26245376 0.93000007 4475182
-0.028293774 0.26273596 0.93100005 4540707
-0.025357634 0.26328796 0.93200004 7240986
-0.019422892 0.26301819 0.93200004 9736764
-0.027995072 0.2654148 0.93000007 3424274
-0.025047064 0.26582637 0.93050009 7304983
-0.022660052 0.26544604 0.93200004 8951893
-0.019422892 0.26544604 0.93200004 9542468
-0.02530322 0.26864499 0.93000007 6847315
-0.021850746 0.26706463 0.93200004 8886355
-0.024893371 0.27189255 0.93080008 8888417
-0.024226502 0.27456701 0.93000007 10794077
-0.022660052 0.27353889 0.93200004 9939551
-0.094179422 -0.18023995 0.93500006 6924101
-0.088496208 -0.18023995 0.93500006 7253040
-0.085248627 -0.18023995 0.93500006 7517219
-0.082812928 -0.18023995 0.93500006 7845157
-0.077129714 -0.18023995 0.93500006 8239151
-0.073611513 -0.18078122 0.93500012 8633154
-0.070634589 -0.18105185 0.93500006 9093705
-0.068198919 -0.18186375 0.93500006 9817951
-0.08118917 -0.1786162 0.93500006 7844907
-0.079565413 -0.1786162 0.93500006 7910443
-0.077941597 -0.1786162 0.93500006 7976235
-0.063327573 0.12827888 0.93500006 67060
-0.061703756 0.12746699 0.93500006 5666562
-0.066575095 0.13152646 0.93500006 5797636
-0.064139456 0.13071457 0.93500006 1515961
-0.061703756 0.13071457 0.93500006 5994252
-0.067387007 0.13396214 0.93500006 2964348
-0.064139456 0.13396214 0.93500006 3030656
-0.060891878 0.13396214 0.93500006 4479559
-0.058456175 0.13396214 0.93500006 5862422
-0.056832418 0.13396214 0.93500006 67060
-0.066575095 0.13639782 0.93500006 67060
-0.064139456 0.13639782 0.93500006 67060
-0.056020539 0.13639782 0.93500006 67060
-0.076317832 0.13964538 0.93500006 4412186
-0.073882133 0.13964538 0.93500006 5202212
-0.070634589 0.13883349 0.93500006 4347208
-0.06765765 0.13856286 0.93500012 67060
-0.055208661 0.13883349 0.93500006 3228795
-0.053584836 0.13964538 0.93500006 6719769
-0.076317832 0.14208105 0.93500006 2572828
-0.073882133 0.14208105 0.93500006 3949861
-0.070634589 0.14208105 0.93500006 5202973
-0.068198919 0.14208105 0.93500006 2899069
-0.055208661 0.14208105 0.93500006 67060
-0.052772958 0.14208105 0.93500006 4346198
-0.076859087 0.14559925 0.93500012 5338127
-0.073882133 0.14532861 0.93500006 5272578
-0.070363954 0.14559925 0.93500012 5798151
-0.068198919 0.14532861 0.93500006 5994512
-0.055208661 0.14451672 0.93500006 4479489
-0.052772958 0.14532861 0.93500006 3622470
-0.049796008 0.14559925 0.93500012 1844643
-0.047089744 0.14614052 0.93500006 67060
-0.076317832 0.14857619 0.93500006 6386197
-0.073882133 0.14857619 0.93500006 5928202
-0.070363954 0.14884682 0.93500012 5930001
-0.068198919 0.1477643 0.93500006 6191905
-0.052772962 0.1477643 0.93500006 6523985
-0.04952538 0.14857619 0.93500006 5007740
-0.046548471 0.14884682 0.93500012 4217972
-0.076317832 0.15182374 0.93500006 5464335
-0.073882133 0.15182374 0.93500006 5268499
-0.070634589 0.15182374 0.93500006 3886413
-0.046007197 0.15155312 0.93500012 3953272
-0.076859087 0.15534195 0.93500012 1184788
-0.073882133 0.15425941 0.93500006 2628871
-0.070634589 0.15425941 0.93500006 1314685
-0.04546592 0.15588321 0.93500006 6191674
-0.043842167 0.15507132 0.93500006 3162000
-0.077941597 0.15750699 0.93500006 925199
-0.043842167 0.15750699 0.93500006 67060
-0.077941597 0.15994269 0.93500006 1054986
-0.043030255 0.15994269 0.93500006 3096203
-0.077941597 0.16237836 0.93500006 1054987
-0.043030255 0.16237836 0.93500006 67060
-0.079565413 0.1664378 0.93500006 924428
-0.040594585 0.1664378 0.93500006 5796393
-0.079565413 0.16887347 0.93500006 1121293
-0.040594585 0.16887347 0.93500006 67060
-0.038970828 0.17049727 0.93500006 4356935
-0.079565413 0.17293294 0.93500006 859657
-0.037888281 0.1726623 0.93500012 1122909
-0.035723247 0.17374483 0.93500006 3089921
-0.087684333 0.17699237 0.93500006 3097606
-0.084978007 0.17645112 0.93500012 992544
-0.037347008 0.17618048 0.93500006 67060
-0.035723247 0.17699237 0.93500006 67060
-0.084436752 0.17861615 0.93500006 1123110
-0.037347008 0.17861615 0.93500006 5599758
-0.082001045 0.18105182 0.93500006 1124370
-0.037347008 0.18105184 0.93500006 3227007
-0.035723247 0.18105184 0.93500006 67060
-0.08118917 0.18429942 0.93500006 7889246
-0.037347008 0.18429942 0.93500006 5601043
-0.079565413 0.18835887 0.93500006 14457262
-0.038158916 0.18754698 0.93500006 2965336
-0.079565413 0.19160643 0.93500006 14457262
-0.038158916 0.19079454 0.93500006 1646468
-0.08118917 0.19404212 0.93500006 7887714
-0.079565413 0.19323021 0.93500006 14457262
-0.037347008 0.19323021 0.93500006 4283398
-0.035723247 0.19404212 0.93500006 67060
-0.037347008 0.19647779 0.93500006 4871941
-0.035723247 0.19647779 0.93500006 67060
-0.082812928 0.19810157 0.93500006 14457262
-0.035723247 0.19891346 0.93500006 2634883
-0.082812928 0.20297292 0.93500006 14457262
-0.035723247 0.20216103 0.93500006 3621509
-0.037347008 0.20540859 0.93500006 7110922
-0.087684333 0.20946805 0.93500006 3362600
-0.084978007 0.2089268 0.93500012 5984081
-0.037347008 0.20865616 0.93500006 67060
-0.037347008 0.21190372 0.93500006 4086054
-0.087684333 0.21433941 0.93500006 14457262
-0.086060502 0.21433941 0.93500006 14457262
-0.037347008 0.2151513 0.93500006 2240130
-0.035723247 0.21596318 0.93500006 67060
-0.037347008 0.21758696 0.93500006 67060
-0.035723247 0.21758696 0.93500006 67060
-0.037888281 0.22029328 0.93500012 3292528
-0.035723247 0.22002265 0.93500006 67060
-0.040594585 0.22327021 0.93500006 2568590
-0.038429555 0.22299957 0.93500012 3489900
-0.038970828 0.22570589 0.93500006 5598246
-0.040594585 0.22976534 0.93500006 3096215
-0.038158916 0.22976534 0.93500006 2898059
-0.035723247 0.23057723 0.93500006 5792784
-0.040594585 0.23220101 0.93500006 67060
-0.038158916 0.23301291 0.93500006 4609629
-0.035723247 0.23301291 0.93500006 3161229
-0.035723247 0.23544858 0.93500006 67060
-0.034911335 0.23788425 0.93500006 3227018
-0.035181973 0.24086121 0.93500012 67060
-0.035723247 0.2443794 0.93500006 3224979
-0.034911335 0.24681507 0.93500006 5202481
-0.03166379 0.24843885 0.93500006 2174610
-0.031393163 0.25060391 0.93500012 2439523
-0.03085191 0.2533102 0.93500006 67060
-0.029228088 0.25493398 0.93500006 67060
-0.02760433 0.25655779 0.93500006 6511624
-0.025168631 0.25899345 0.93500006 4542356
-0.022732992 0.25980535 0.93500006 9018458
-0.024356751 0.26224101 0.93500006 8558138
-0.022191718 0.26251167 0.93500012 9149529
-0.021650445 0.26521799 0.93500012 9083725
-0.022732992 0.26954806 0.93500006 8690251
-0.022732992 0.27198374 0.93500006 8691786
-0.10251717 -0.18062548 0.93700004 6529564
-0.10088993 -0.18062548 0.93700004 6726702
-0.096821785 -0.18062548 0.93700004 6924064
-0.091940001 -0.18062548 0.93700004 6989866
-0.067259938 -0.18116793 0.93700004 9685073
-0.064276651 -0.18143913 0.93700004 10079329
-0.061022125 -0.18143913 0.93700004 10341473
-0.058581218 -0.18225276 0.93700004 10868065
-0.056411576 -0.18116793 0.93700004 10671471
-0.052885842 -0.18143913 0.93700004 11133564
-0.050444935 -0.18143913 0.93700004 11265413
-0.094380878 -0.17899825 0.93700004 6924085
-0.088685498 -0.17899825 0.93700004 7318821
-0.085159779 -0.17845583 0.93700004 7450920
-0.082447663 -0.17791341 0.93700004 7714089
-0.078921959 -0.17737098 0.93700004 7779116
-0.076481074 -0.17899825 0.93700004 8041522
-0.074311376 -0.17845583 0.93700004 8041784
-0.070514455 -0.17845583 0.93700004 8501059
-0.067531154 -0.17818461 0.93700004 8961867
-0.064276651 -0.17818461 0.93700004 9291344
-0.061835743 -0.17818461 0.93700004 9356892
-0.056953985 -0.17899825 0.93700004 9750361
-0.056953985 -0.17574374 0.93700004 8830537
-0.039867803 -0.10658532 0.93700004 7106017
-0.078921959 0.11065347 0.93700004 856857
-0.078921959 0.11228072 0.93700004 790810
-0.076481074 0.11228072 0.93700004 595980
-0.074040167 0.11309434 0.93700004 728330
-0.070785671 0.11309434 0.93700004 726141
-0.06780237 0.11336555 0.93700004 727900
-0.074040167 0.11553523 0.93700004 531747
-0.070785671 0.11553523 0.93700004 791075
-0.067531154 0.11553523 0.93700004 2695201
-0.073226549 0.11716249 0.93700004 67060
-0.070785671 0.11797611 0.93700004 792702
-0.068344794 0.11716249 0.93700004 67060
-0.060208511 0.11878974 0.93700004 7178519
-0.056953985 0.11878974 0.93700004 6331418
-0.063463032 0.12123063 0.93700004 5663519
-0.061022129 0.12123063 0.93700004 1580988
-0.058581218 0.12123063 0.93700004 67060
-0.056411576 0.12150185 0.93700004 3289946
-0.064276651 0.12448514 0.93700004 2305665
-0.061022129 0.12448514 0.93700004 1977983
-0.058581218 0.12448514 0.93700004 4019969
-0.056953985 0.12529877 0.93700004 67060
-0.066717505 0.12855327 0.93700004 5004830
-0.064547859 0.12746844 0.93700004 3291986
-0.060208511 0.12773964 0.93700004 3030907
-0.058581218 0.12773964 0.93700004 3030908
-0.056140371 0.12773964 0.93700004 67060
-0.053699456 0.12773964 0.93700004 5730572
-0.070785671 0.13180779 0.93700004 3758337
-0.06780237 0.13072297 0.93700004 1583011
-0.060208511 0.13099417 0.93700004 67060
-0.058581218 0.13099417 0.93700004 5994262
-0.056140371 0.13099417 0.93700004 2898817
-0.053699456 0.13180779 0.93700004 5600020
-0.073226549 0.13343504 0.93700004 3623944
-0.070785671 0.13343504 0.93700004 2106749
-0.055326756 0.13343504 0.93700004 5664788
-0.052885842 0.13343504 0.93700004 5599252
-0.073768966 0.13614717 0.93700004 4478994
-0.070785671 0.13587596 0.93700004 3690563
-0.068344794 0.13668957 0.93700004 67060
-0.055326756 0.13506232 0.93700004 67060
-0.052885845 0.13587594 0.93700004 2964611
-0.049902525 0.13614717 0.93700004 3952220
-0.076481074 0.13831683 0.93700004 4739856
-0.074040167 0.13831683 0.93700004 4940824
-0.05261464 0.13885924 0.93700004 4283482
-0.049631316 0.13913044 0.93700004 3360125
-0.047190469 0.13913044 0.93700004 67060
-0.078921959 0.14238498 0.93700004 3361040
-0.04963132 0.14238498 0.93700004 4676680
-0.046376824 0.14238498 0.93700004 4547166
-0.079193175 0.14536828 0.93700004 4808973
-0.07159932 0.14482585 0.93700004 5272835
-0.048817702 0.14482585 0.93700004 5662723
-0.046105608 0.14536826 0.93700004 3885670
-0.043935943 0.14563948 0.93700004 67060
-0.082176454 0.14889398 0.93700004 1647632
-0.078921959 0.14889398 0.93700004 5729051
-0.07159932 0.14808036 0.93700004 5864195
-0.045563176 0.14808036 0.93700004 5930526
-0.043122299 0.14889398 0.93700004 2833560
-0.078108311 0.1521485 0.93700004 4610316
-0.043122295 0.1521485 0.93700004 67060
-0.078108311 0.15458938 0.93700004 2496802
-0.042308651 0.15458938 0.93700004 67060
-0.040681418 0.15458938 0.93700004 67060
-0.079735607 0.15784389 0.93700004 1253137
-0.042308651 0.15703025 0.93700004 3161993
-0.040681418 0.15703025 0.93700004 6322753
-0.079735607 0.16028479 0.93700004 1055496
-0.040681418 0.16028479 0.93700004 6060844
-0.079735607 0.16353931 0.93700004 924938
-0.040681418 0.16353931 0.93700004 5928995
-0.037426893 0.16435292 0.93700004 5271610
-0.039054185 0.16679382 0.93700004 2703781
-0.037426893 0.16679382 0.93700004 2374043
-0.079735607 0.17086196 0.93700004 1056270
-0.039054185 0.16923471 0.93700004 67060
-0.037426893 0.17004833 0.93700004 1319054
-0.081362836 0.17248921 0.93700004 1187592
-0.03579966 0.17248921 0.93700004 67060
-0.087871887 0.17574373 0.93700004 2964483
-0.085702181 0.17465889 0.93700004 727831
-0.082176454 0.17411646 0.93700004 1123082
-0.03579966 0.17574373 0.93700004 67060
-0.087871887 0.17899822 0.93700004 3165202
-0.086244598 0.17899822 0.93700004 1056540
-0.03579966 0.17899822 0.93700004 67060
-0.087871887 0.1814391 0.93700004 2963994
-0.08543098 0.1814391 0.93700004 1058850
-0.034172364 0.1814391 0.93700004 67060
-0.08543098 0.18388002 0.93700004 1714717
-0.082990073 0.18469363 0.93700004 1584150
-0.035257228 0.18496487 0.93700004 1845412
-0.081362836 0.18713453 0.93700004 14457262
-0.034986012 0.18794815 0.93700004 2106264
-0.079735607 0.19038905 0.93700004 14457262
-0.034986012 0.19038905 0.93700004 67060
-0.082447663 0.19255871 0.93700004 6047045
-0.034714796 0.19255871 0.93700004 67060
-0.085159779 0.19635564 0.93700004 10845561
-0.082990073 0.19527081 0.93700004 1711375
-0.034172364 0.19608444 0.93700004 2700417
-0.08543098 0.19933894 0.93700004 11435655
-0.034172364 0.19933894 0.93700004 2831497
-0.08543098 0.20259348 0.93700004 14457262
-0.034172364 0.20259348 0.93700004 3424903
-0.088685498 0.20584798 0.93700004 14457262
-0.08543098 0.20584798 0.93700004 14457262
-0.034986012 0.20584798 0.93700004 3622018
-0.087871887 0.20828886 0.93700004 14457262
-0.086244598 0.20828886 0.93700004 14457262
-0.035257228 0.2093737 0.93700004 67060
-0.034986012 0.21154338 0.93700004 4148255
-0.087871887 0.21317062 0.93700004 14457262
-0.086244598 0.21317062 0.93700004 14457262
-0.034986012 0.21398425 0.93700004 1911941
-0.034172364 0.21723877 0.93700004 67060
-0.034172364 0.22049329 0.93700004 2699917
-0.037426893 0.22456142 0.93700004 5662500
-0.034986012 0.2237478 0.93700004 2963341
-0.040139012 0.22727352 0.93700004 1844911
-0.037426893 0.22700232 0.93700004 5663774
-0.035257228 0.22673111 0.93700004 1909928
-0.034986012 0.22944321 0.93700004 67060
-0.034172364 0.23188409 0.93700004 67060
-0.031731516 0.23188408 0.93700004 3160724
-0.034172364 0.2351386 0.93700004 3160972
-0.032545134 0.2351386 0.93700004 6319902
-0.031731516 0.2383931 0.93700004 5006441
-0.034172364 0.24246125 0.93700004 67060
-0.031731516 0.24164763 0.93700004 5860973
-0.029290609 0.240834 0.93700004 67060
-0.034172364 0.24490213 0.93700004 67060
-0.031731516 0.24490213 0.93700004 3620755
-0.029290609 0.24490213 0.93700004 7044163
-0.031731516 0.24734302 0.93700004 5333297
-0.029290609 0.24815664 0.93700004 6055993
-0.028476994 0.25059754 0.93700004 6909475
-0.028476994 0.25303841 0.93700004 3027835
-0.027663378 0.25547931 0.93700004 67060
-0.026036082 0.25629294 0.93700004 3949959
-0.024408851 0.25873381 0.93700004 9148717
-0.021154325 0.27093825 0.93700004 8888143
-0.019527093 0.27175188 0.93700004 9150809
-0.021154325 0.27419275 0.93700004 9545568
-0.019527093 0.27419275 0.93700004 9545576
-0.099580444 -0.18120378 0.94000006 6924065
-0.058768775 -0.18120378 0.94000006 10276702
-0.048974 -0.18202004 0.94000006 11067277
-0.047341559 -0.18202004 0.94000006 10937746
-0.10366164 -0.17957136 0.94000006 6595349
-0.10039669 -0.17957136 0.94000006 7054366
-0.096859716 -0.1790272 0.94000006 6858004
-0.093594775 -0.17848304 0.94000006 6924068
-0.09141811 -0.1787551 0.94000006 7121433
-0.088969454 -0.17793886 0.94000006 7383834
-0.086520724 -0.17793886 0.94000006 7384356
-0.076725945 -0.17793886 0.94000006 7910703
-0.073461004 -0.17793886 0.94000006 8107578
-0.071828566 -0.17793886 0.94000006 8304194
-0.060401283 -0.1787551 0.94000006 9356382
-0.05822463 -0.17848304 0.94000006 9355864
-0.055503894 -0.1787551 0.94000006 9815616
-0.053055167 -0.17957136 0.94000006 10799964
-0.050606444 -0.17957136 0.94000006 11327343
-0.093050621 -0.17630643 0.94000006 7055392
-0.09141811 -0.17630643 0.94000006 7252511
-0.088969454 -0.17630643 0.94000006 7383842
-0.085704505 -0.17630643 0.94000006 7449645
-0.082439557 -0.17630643 0.94000006 7647788
-0.079174638 -0.17630643 0.94000006 7713579
-0.075909689 -0.17630643 0.94000006 7844909
-0.073461004 -0.17630643 0.94000006 8041780
-0.071012311 -0.17630643 0.94000006 8304443
-0.067747362 -0.17549017 0.94000006 8435771
-0.06448245 -0.17549017 0.94000006 8632390
-0.061217502 -0.17549017 0.94000006 8567887
-0.05822463 -0.17521809 0.94000006 8567885
-0.055503894 -0.17630643 0.94000006 8765246
-0.043260362 -0.10692658 0.94000006 3290079
-0.063666232 0.10284539 0.94000006 3954690
-0.061217502 0.10366163 0.94000006 1252279
-0.057952553 0.10366163 0.94000006 1122236
-0.053871389 0.10447787 0.94000006 1842956
-0.063666232 0.10774279 0.94000006 4084226
-0.061217502 0.10692656 0.94000006 3228735
-0.057952553 0.10692656 0.94000006 1517183
-0.055503894 0.10692656 0.94000006 1053316
-0.053055167 0.10692656 0.94000006 1055557
-0.049790222 0.10774279 0.94000006 726910
-0.047341559 0.10774279 0.94000006 67060
-0.075909689 0.10937525 0.94000006 858896
-0.073461004 0.10937525 0.94000006 1187595
-0.061217502 0.10937525 0.94000006 1779324
-0.057952553 0.10937525 0.94000006 1384575
-0.055503894 0.10937525 0.94000006 67060
-0.053055167 0.10937525 0.94000006 530048
-0.049790222 0.10937525 0.94000006 726911
-0.047341559 0.10937525 0.94000006 67060
-0.075909689 0.11100775 0.94000006 661259
-0.073461004 0.11100775 0.94000006 990727
-0.071012311 0.11100775 0.94000006 726141
-0.067475282 0.1115519 0.94000006 1253205
-0.063666232 0.11264021 0.94000006 1976836
-0.061217502 0.11182398 0.94000006 528312
-0.057952553 0.11182398 0.94000006 923775
-0.055503894 0.11182398 0.94000006 594817
-0.053055167 0.11182398 0.94000006 662594
-0.049790222 0.11182398 0.94000006 660863
-0.078358389 0.11508891 0.94000006 1385478
-0.076725945 0.11508891 0.94000006 792336
-0.06448245 0.11508891 0.94000006 67060
-0.061217502 0.11508891 0.94000006 2243714
-0.057952557 0.11508891 0.94000006 2444119
-0.055503894 0.11508891 0.94000006 67060
-0.053055167 0.11508891 0.94000006 332219
-0.049790222 0.11508891 0.94000006 1124225
-0.047341559 0.11590514 0.94000006 67060
-0.078358389 0.11835384 0.94000006 3364610
-0.075909689 0.11835384 0.94000006 1384227
-0.073461004 0.11917007 0.94000006 67060
-0.067475282 0.11862592 0.94000006 4083814
-0.06448245 0.11835384 0.94000006 3294598
-0.061489575 0.11808177 0.94000006 67060
-0.05822463 0.11808177 0.94000006 2307248
-0.055503894 0.11835384 0.94000006 3032703
-0.053055167 0.11835384 0.94000006 3029887
-0.049790226 0.11835384 0.94000006 4545858
-0.047341559 0.11917007 0.94000006 67060
-0.075637609 0.1213467 0.94000006 3291151
-0.073461004 0.12161878 0.94000006 3826186
-0.071012311 0.12161877 0.94000006 3031165
-0.067747362 0.12161878 0.94000006 3161221
-0.065298669 0.12161878 0.94000006 3228301
-0.055503894 0.12080254 0.94000006 67060
-0.053055171 0.12161878 0.94000006 3686725
-0.049790226 0.12161877 0.94000006 3425343
-0.046525307 0.12161877 0.94000006 3426636
-0.075093441 0.1248837 0.94000006 5469994
-0.073461004 0.1248837 0.94000006 5927968
-0.071012311 0.1248837 0.94000006 67060
-0.067747362 0.1248837 0.94000006 2568060
-0.057136334 0.12406746 0.94000006 67060
-0.055503894 0.1248837 0.94000006 67060
-0.053055167 0.1248837 0.94000006 2637184
-0.049790222 0.1248837 0.94000006 3755839
-0.046525307 0.1248837 0.94000006 2701951
-0.075093441 0.12814863 0.94000006 5929239
-0.073461004 0.12814863 0.94000006 5468174
-0.071012311 0.12814863 0.94000006 3163464
-0.06801945 0.12787655 0.94000006 2897515
-0.052238949 0.12814863 0.94000006 67060
-0.049790222 0.12814863 0.94000006 2767741
-0.046525307 0.12814863 0.94000006 4414270
-0.044076614 0.12733239 0.94000006 6127106
-0.073461004 0.13059732 0.94000006 5139203
-0.071012311 0.13059732 0.94000006 1848186
-0.053055167 0.13059732 0.94000006 5598991
-0.049790222 0.13059732 0.94000006 5862404
-0.046525307 0.13059732 0.94000006 3228283
-0.075093441 0.13304603 0.94000006 4942341
-0.073461004 0.13222979 0.94000006 4343553
-0.052238949 0.13222979 0.94000006 67060
-0.049790222 0.13304603 0.94000006 4216132
-0.046525307 0.13304603 0.94000006 4216897
-0.044076614 0.13222979 0.94000006 67060
-0.076181777 0.1360389 0.94000006 5136398
-0.048974 0.13549474 0.94000006 67060
-0.046525307 0.13631098 0.94000006 2899584
-0.079174638 0.13957591 0.94000006 4543243
-0.045709055 0.13957591 0.94000006 5798935
-0.044076614 0.13957591 0.94000006 67060
-0.043260366 0.14284083 0.94000006 2899594
-0.04244411 0.14610577 0.94000006 2833540
-0.040811665 0.14610577 0.94000006 5665568
-0.039995447 0.14855446 0.94000006 5796154
-0.082439557 0.15181941 0.94000006 1843735
-0.079990894 0.15181941 0.94000006 4414226
-0.039995447 0.15100317 0.94000006 3096735
-0.082167484 0.15454018 0.94000006 1777426
-0.079990894 0.15426809 0.94000006 2762773
-0.039723374 0.15399602 0.94000006 4675194
-0.03754672 0.15508433 0.94000006 6519349
-0.082167484 0.15726095 0.94000006 1187092
-0.079990894 0.15671679 0.94000006 1383444
-0.039179228 0.15753302 0.94000006 3162019
-0.03754672 0.15753302 0.94000006 6192450
-0.035914283 0.15834926 0.94000006 67060
-0.081623331 0.16079798 0.94000006 1057031
-0.039179228 0.16079798 0.94000006 2965916
-0.03754672 0.16079798 0.94000006 2900636
-0.081623331 0.16487914 0.94000006 1056523
-0.039179228 0.16406292 0.94000006 2770836
-0.03754672 0.16324668 0.94000006 5470015
-0.035914283 0.16406292 0.94000006 67060
-0.081623331 0.16651161 0.94000006 1057292
-0.035914283 0.16651161 0.94000006 67060
-0.081623331 0.1689603 0.94000006 1188109
-0.035914283 0.1689603 0.94000006 1842065
-0.084888279 0.17304146 0.94000006 795434
-0.082439557 0.17222524 0.94000006 1254163
-0.035914283 0.17140901 0.94000006 2965770
-0.034281775 0.17549017 0.94000006 2176647
-0.034281775 0.1787551 0.94000006 2834050
-0.088153228 0.18446875 0.94000006 14457262
-0.034281775 0.18446875 0.94000006 5069060
-0.032649335 0.18446875 0.94000006 4674820
-0.088153228 0.18610121 0.94000006 14457262
-0.085704505 0.18691744 0.94000006 14457262
-0.083255783 0.18773368 0.94000006 1845522
-0.032649335 0.18691745 0.94000006 4277027
-0.084888279 0.1909986 0.94000006 14457262
-0.082439557 0.19018237 0.94000006 11303814
-0.032649335 0.19018237 0.94000006 4809238
-0.088153228 0.19263108 0.94000006 14457262
-0.085704505 0.19344731 0.94000006 11502724
-0.032649335 0.19344732 0.94000006 2569344
-0.088969454 0.19752847 0.94000006 4082714
-0.086520724 0.195896 0.94000006 14457262
-0.032649335 0.19671223 0.94000006 5333530
-0.09141811 0.2007934 0.94000006 3022889
-0.088969454 0.19997716 0.94000006 12028558
-0.032649335 0.19997716 0.94000006 5993777
-0.09141811 0.20242588 0.94000006 14457262
-0.088969454 0.20242588 0.94000006 14457262
-0.032649335 0.20242588 0.94000006 6849579
-0.09141811 0.20405835 0.94000006 14457262
-0.088969454 0.20405835 0.94000006 9271901
-0.032649335 0.20487458 0.94000006 6848286
-0.034281775 0.20895575 0.94000006 67060
-0.032649335 0.20813951 0.94000006 7636512
-0.027751947 0.20895575 0.94000006 67060
-0.032105189 0.21167652 0.94000006 5333797
-0.027751947 0.21140444 0.94000006 1781899
-0.025303222 0.21140444 0.94000006 1449148
-0.031833112 0.21466936 0.94000006 3621451
-0.028568167 0.21385314 0.94000006 2502795
-0.025031149 0.2143973 0.94000006 1844905
-0.032105189 0.21766225 0.94000006 3424876
-0.031833112 0.220383 0.94000006 5529637
-0.031833112 0.2228317 0.94000006 2963856
-0.031833112 0.22609663 0.94000006 1514948
-0.034281775 0.22854534 0.94000006 5661736
-0.031833112 0.22936156 0.94000006 3094427
-0.028840242 0.22963366 0.94000006 2042032
-0.028568167 0.2326265 0.94000006 4411228
-0.031016894 0.23589143 0.94000006 67060
-0.029384388 0.23670767 0.94000006 5859637
-0.029384388 0.23915637 0.94000006 6254408
-0.027751947 0.24160509 0.94000006 6650174
-0.028296094 0.24378172 0.94000006 2371511
-0.027751947 0.2473187 0.94000006 3490710
-0.027751947 0.24976741 0.94000006 67060
-0.026119443 0.25139987 0.94000006 67060
-0.025575295 0.25412068 0.94000006 2634172
-0.022038307 0.25466481 0.94000006 2900907
-0.024487 0.25711352 0.94000006 4672410
-0.022038307 0.25711352 0.94000006 5662613
-0.022854557 0.25956219 0.94000006 8821333
-0.019589614 0.269357 0.94000006 9280854
-0.019589614 0.27098948 0.94000006 9019479
-0.040080544 -0.1832253 0.94200003 8767079
-0.045806307 -0.18158934 0.94200003 11400358
-0.040080544 -0.18158934 0.94200003 10413192
-0.037626609 -0.18158934 0.94200003 9558121
-0.1063361 -0.17995343 0.94200003 6397714
-0.1038822 -0.17831746 0.94200003 6463000
-0.1006103 -0.17831746 0.94200003 6791957
-0.0981564 -0.17831746 0.94200003 6792193
-0.053168051 -0.17831746 0.94200003 9751357
-0.049896158 -0.17913544 0.94200003 10934632
-0.047442287 -0.17995343 0.94200003 12248451
-0.10306422 -0.17668155 0.94200003 6397723
-0.1006103 -0.17668155 0.94200003 6595092
-0.097338445 -0.17668155 0.94200003 6530061
-0.094339207 -0.17559092 0.94200009 6858273
-0.091612615 -0.17504558 0.94200003 7252519
-0.089158744 -0.17504558 0.94200003 7318314
-0.085886851 -0.17504558 0.94200003 7318578
-0.082614958 -0.17504558 0.94200003 7515695
-0.079343095 -0.17504558 0.94200003 7581994
-0.076071203 -0.17504558 0.94200003 7648042
-0.073617302 -0.17504558 0.94200003 7844654
-0.071163401 -0.17504558 0.94200003 8042033
-0.055621985 -0.17504558 0.94200003 8501583
-0.053168051 -0.17668155 0.94200003 8764485
-0.060529795 -0.17340966 0.94200003 8304715
-0.058893818 -0.17340966 0.94200003 8304461
-0.043352403 -0.10470016 0.94200003 6644683
-0.040898502 -0.10470016 0.94200003 14933710
-0.060529795 0.07688918 0.94200003 67060
-0.05807586 0.07688918 0.94200003 2702474
-0.061347753 0.079343088 0.94200003 1384887
-0.05807586 0.079343088 0.94200003 4020035
-0.061075103 0.08288762 0.94200009 1911715
-0.05807586 0.082614966 0.94200003 4348224
-0.061347753 0.085886851 0.94200003 67060
-0.05807586 0.085886851 0.94200003 1582008
-0.055621985 0.086704828 0.94200003 67060
-0.064619645 0.10142828 0.94200003 3954184
-0.061620407 0.10088297 0.94200009 67060
-0.058893818 0.10142828 0.94200003 67060
-0.067073517 0.10388219 0.94200003 3558666
-0.064892299 0.10415485 0.94200009 67060
-0.055621985 0.10388219 0.94200003 67060
-0.053168051 0.10388219 0.94200003 856447
-0.067073517 0.10715406 0.94200003 3098631
-0.064892299 0.10688141 0.94200009 2372946
-0.049896158 0.10633609 0.94200003 1386503
-0.047442287 0.10633609 0.94200003 67060
-0.071163401 0.10960797 0.94200003 857471
-0.067891508 0.10960797 0.94200003 1385082
-0.064619645 0.10960797 0.94200003 67060
-0.064892299 0.11178925 0.94200009 988579
-0.047442287 0.1120619 0.94200003 463235
-0.080161087 0.11533378 0.94200003 1982218
-0.047442287 0.11451581 0.94200003 67060
-0.046351634 0.118333 0.94200009 5927429
-0.078525111 0.12187754 0.94200003 3623189
-0.076889195 0.1226955 0.94200003 3620622
-0.043352403 0.12187753 0.94200003 4018759
-0.079070434 0.12487676 0.94200009 3947043
-0.076889195 0.12514941 0.94200003 5008938
-0.043352403 0.12514941 0.94200003 3030651
-0.040898502 0.12596738 0.94200003 67060
-0.078525111 0.12760332 0.94200003 4808473
-0.076889195 0.12760332 0.94200003 6585117
-0.042534415 0.12760332 0.94200003 6652929
-0.040898502 0.12760332 0.94200003 7243276
-0.079070434 0.12978457 0.94200009 5337606
-0.076343864 0.13032988 0.94200009 6059782
-0.043352406 0.13005722 0.94200003 4809022
-0.040898502 0.12923926 0.94200003 67060
-0.078525111 0.13332909 0.94200003 5861635
-0.076889195 0.13332909 0.94200003 5992196
-0.043079745 0.13360175 0.94200009 5533954
-0.078525111 0.136601 0.94200003 5533186
-0.043352403 0.13660102 0.94200003 3096955
-0.042534415 0.13987288 0.94200003 67060
-0.040898502 0.14069085 0.94200003 5665554
-0.040898502 0.14314476 0.94200003 5797399
-0.039262585 0.14559866 0.94200003 5731354
-0.039262585 0.1472346 0.94200003 67060
-0.037626609 0.14805257 0.94200003 2964631
-0.037626609 0.15132445 0.94200003 6256700
-0.035990693 0.15132445 0.94200003 67060
-0.037626609 0.15377836 0.94200003 6847033
-0.035990693 0.15459633 0.94200003 2834834
-0.085068896 0.15868618 0.94200003 1645866
-0.08343292 0.15868618 0.94200003 1123102
-0.034900043 0.15759556 0.94200009 3755633
-0.085068896 0.16195808 0.94200003 1318434
-0.08343292 0.16114011 0.94200003 1122581
-0.035990693 0.16114011 0.94200003 2635164
-0.082614958 0.16359402 0.94200003 1056265
-0.08343292 0.16522996 0.94200003 1188102
-0.034354717 0.16604793 0.94200003 1514903
-0.085068896 0.17013776 0.94200003 795163
-0.08343292 0.17013776 0.94200003 1385492
-0.034354717 0.16850182 0.94200003 2637614
-0.085068896 0.1717737 0.94200003 795186
-0.08343292 0.1717737 0.94200003 1386271
-0.034354717 0.17340964 0.94200003 67060
-0.0327188 0.18158934 0.94200003 5272835
-0.0327188 0.18322527 0.94200003 5206019
-0.031082885 0.18813311 0.94200003 4548380
-0.088340789 0.19058703 0.94200003 9074271
-0.086159512 0.19031438 0.94200009 14457262
-0.031082885 0.19058703 0.94200003 67060
-0.089431398 0.19413158 0.94200009 7760980
-0.031082885 0.19385891 0.94200003 2700934
-0.089158744 0.1963128 0.94200003 14457262
-0.031082885 0.19713077 0.94200003 2569095
-0.093248591 0.19958468 0.94200003 14457262
-0.091612615 0.19958468 0.94200003 14457262
-0.031082885 0.19958468 0.94200003 5861412
-0.031082885 0.20203859 0.94200003 67060
-0.029446909 0.20122062 0.94200003 6389022
-0.031082885 0.20531048 0.94200003 3424651
-0.029446909 0.20531048 0.94200003 3424909
-0.031082885 0.20858236 0.94200003 3819155
-0.028901605 0.2083097 0.94200009 4874614
-0.026175017 0.20858236 0.94200003 6648853
-0.031082885 0.21103626 0.94200003 67060
-0.029446909 0.21185423 0.94200003 2175633
-0.028628951 0.21594408 0.94200003 2831752
-0.026175017 0.21594408 0.94200003 67060
-0.028628951 0.21758002 0.94200003 5795607
-0.025357058 0.21758002 0.94200003 3095687
-0.031082885 0.21921597 0.94200003 67060
-0.028628951 0.22003394 0.94200003 4410967
-0.0245391 0.21921597 0.94200003 67060
-0.028628951 0.22330582 0.94200003 2897550
-0.029446909 0.2265777 0.94200003 5992230
-0.027810993 0.22903161 0.94200003 6189615
-0.028628951 0.23557536 0.94200003 5400621
-0.027810993 0.23802927 0.94200003 2898069
-0.027810993 0.24048319 0.94200003 67060
-0.026175017 0.24866289 0.94200003 6324534
-0.025084406 0.25084418 0.94200009 2699703
-0.022903185 0.25193477 0.94200003 67060
-0.0245391 0.25357071 0.94200003 7965511
-0.022903185 0.25357071 0.94200003 67060
-0.10913648 -0.18052652 0.94500005 6200597
-0.04595219 -0.18052652 0.94500005 12511880
-0.043490469 -0.18134707 0.94500005 11988630
-0.10503363 -0.17724423 0.94500005 6331933
-0.049781542 -0.17779128 0.94500005 9422167
-0.046772782 -0.17888536 0.94500005 10670952
-0.042669874 -0.17806479 0.94500005 10080339
-0.10093072 -0.17560305 0.94500005 6529555
-0.097648442 -0.17560305 0.94500005 6595600
-0.054157939 -0.17560305 0.94500005 8500813
-0.052516814 -0.17560305 0.94500005 8567116
-0.050055064 -0.17560305 0.94500005 8698695
-0.10011013 -0.17232075 0.94500005 6594603
-0.098469004 -0.17232075 0.94500005 6660388
-0.094366126 -0.17314135 0.94500005 6989616
-0.090810291 -0.17341487 0.94500005 7318068
-0.08862213 -0.17314133 0.94500005 7318315
-0.085886858 -0.17341487 0.94500005 7252787
-0.067287125 -0.17396192 0.94500005 8041784
-0.064825438 -0.17396192 0.94500005 8173121
-0.062363688 -0.17396192 0.94500005 8239690
-0.057440255 -0.17396192 0.94500005 8303948
-0.10093072 -0.17067958 0.94500005 6528813
-0.064825438 0.058260817 0.94500005 1317769
-0.064825438 0.061543126 0.94500005 1122374
-0.068107724 0.064825431 0.94500005 1186950
-0.064825438 0.064825438 0.94500005 1056842
-0.072210625 0.068928309 0.94500005 2964237
-0.070569441 0.068107739 0.94500005 67060
-0.068107724 0.068107739 0.94500005 1781067
-0.064825438 0.068107739 0.94500005 1384531
-0.070569441 0.070569456 0.94500005 67060
-0.068107724 0.070569456 0.94500005 1516422
-0.065646 0.070569456 0.94500005 67060
-0.068107724 0.07303118 0.94500005 2831714
-0.065646 0.073031172 0.94500005 1909892
-0.067287125 0.075492904 0.94500005 67060
-0.064825438 0.076313473 0.94500005 4347712
-0.061543126 0.076313481 0.94500005 2833792
-0.059081379 0.075492904 0.94500005 5338645
-0.055252068 0.076587006 0.94500005 1451427
-0.052516814 0.07713405 0.94500005 67060
-0.067287125 0.078775197 0.94500005 67060
-0.064825438 0.079595774 0.94500005 2767999
-0.054978535 0.079595774 0.94500005 923579
-0.052516814 0.079595774 0.94500005 1319305
-0.064004876 0.082878068 0.94500005 2701694
-0.062363688 0.082057491 0.94500005 67060
-0.054978535 0.082878068 0.94500005 2374013
-0.052516814 0.082057491 0.94500005 67060
-0.050875627 0.082057491 0.94500005 3031057
-0.064004876 0.086160377 0.94500005 4347662
-0.054705005 0.085886851 0.94500005 1978030
-0.052516814 0.086160377 0.94500005 2309243
-0.050875627 0.086980961 0.94500005 3824399
-0.061543126 0.088622116 0.94500005 5401347
-0.058260817 0.088622116 0.94500005 6061321
-0.054978535 0.088622116 0.94500005 5668119
-0.052516814 0.088622116 0.94500005 67060
-0.060722563 0.090263262 0.94500005 67060
-0.058260817 0.090263262 0.94500005 67060
-0.055799127 0.090263262 0.94500005 67060
-0.082878068 0.095186703 0.94500005 9139040
-0.064004876 0.095186703 0.94500005 2899480
-0.061543126 0.094366133 0.94500005 988864
-0.082878068 0.096827857 0.94500005 8874084
-0.080416381 0.096827857 0.94500005 14457262
-0.077134065 0.096827857 0.94500005 14457262
-0.06455192 0.097921953 0.94500005 2174556
-0.061543126 0.097648427 0.94500005 1845896
-0.058260817 0.097648427 0.94500005 2240636
-0.055799127 0.097648427 0.94500005 4019714
-0.070569441 0.10175131 0.94500005 2898956
-0.068107724 0.10175131 0.94500005 2239359
-0.064825438 0.10011015 0.94500005 67060
-0.060722563 0.10011015 0.94500005 67060
-0.057987299 0.10065721 0.94500005 1450659
-0.055252068 0.10120426 0.94500005 593574
-0.052516814 0.10175131 0.94500005 67060
-0.050875627 0.10175131 0.94500005 795151
-0.070569441 0.10339244 0.94500005 2567438
-0.068928316 0.10339244 0.94500005 3161363
-0.052516814 0.10339244 0.94500005 1384722
-0.050055064 0.10339244 0.94500005 529538
-0.068928316 0.10585417 0.94500005 2764049
-0.050055064 0.1050336 0.94500005 660863
-0.047593374 0.1050336 0.94500005 67060
-0.075492881 0.10831589 0.94500005 1252877
-0.073031187 0.10831589 0.94500005 1647627
-0.070569441 0.10831589 0.94500005 2436106
-0.068928316 0.10831589 0.94500005 2768393
-0.04595219 0.10913647 0.94500005 1123353
-0.04595219 0.11241879 0.94500005 462215
-0.04595219 0.11570109 0.94500005 4746506
-0.080416381 0.11898338 0.94500005 5071888
-0.043764003 0.11925691 0.94500005 2173863
-0.041028749 0.11980395 0.94500005 67060
-0.082057498 0.1214451 0.94500005 4876820
-0.080416381 0.1214451 0.94500005 4218129
-0.041028749 0.1214451 0.94500005 67060
-0.080416381 0.12308626 0.94500005 3818767
-0.040481709 0.12418036 0.94500005 1911719
-0.080416381 0.12718913 0.94500005 3164440
-0.039387625 0.12718913 0.94500005 3426949
-0.080416381 0.131292 0.94500005 5925645
-0.040208187 0.13047144 0.94500005 67060
-0.080416381 0.13375372 0.94500005 5730575
-0.041028749 0.13375372 0.94500005 2964353
-0.080416381 0.13703604 0.94500005 5729300
-0.041028749 0.13703604 0.94500005 3425153
-0.082057498 0.13949776 0.94500005 3359521
-0.041028749 0.13949776 0.94500005 67060
-0.039387625 0.14278005 0.94500005 5665814
-0.039387625 0.1444212 0.94500005 67060
-0.036105312 0.14934465 0.94500005 5665856
-0.034464125 0.15180638 0.94500005 2834330
-0.034464125 0.15508868 0.94500005 2240923
-0.032823 0.15755039 0.94500005 67060
-0.034464125 0.1608327 0.94500005 67060
-0.090263247 0.16247387 0.94500005 4934950
-0.08862213 0.16247387 0.94500005 3230753
-0.086160377 0.16411501 0.94500005 990746
-0.034464125 0.16329443 0.94500005 2369946
-0.086160377 0.16657674 0.94500005 727571
-0.08369863 0.16739732 0.94500005 1253383
-0.032823 0.16657674 0.94500005 2241173
-0.086160377 0.16985902 0.94500005 530196
-0.08369863 0.16903846 0.94500005 1320456
-0.034464125 0.1706796 0.94500005 67060
-0.032823 0.16903846 0.94500005 67060
-0.086980939 0.17314133 0.94500005 265760
-0.034464125 0.17232075 0.94500005 67060
-0.032823 0.17396191 0.94500005 67060
-0.032823 0.17560305 0.94500005 4217134
-0.032823 0.17888536 0.94500005 67060
-0.032823 0.18052649 0.94500005 5339677
-0.02954069 0.19283514 0.94500005 5401122
-0.093545564 0.19693801 0.94500005 14457262
-0.091904379 0.19693801 0.94500005 14457262
-0.02954069 0.19611743 0.94500005 4480033
-0.093545564 0.19857916 0.94500005 14457262
-0.091904379 0.19857916 0.94500005 14457262
-0.02954069 0.19939974 0.94500005 2635657
-0.028446605 0.20295557 0.94500005 2174128
-0.027899563 0.20596433 0.94500005 67060
-0.027899563 0.22647871 0.94500005 67060
-0.027899563 0.22811987 0.94500005 67060
-0.026258375 0.22976102 0.94500005 6321972
-0.025711333 0.23194921 0.94500005 3883375
-0.040377513 -0.18129066 0.94900006 12052339
-0.037121251 -0.18148169 0.95000005 10343228
-0.034646474 -0.18148169 0.95000005 8306995
-0.11548834 -0.17900693 0.95000005 5937171
-0.1130136 -0.17900693 0.95000005 6003231
-0.10954112 -0.17872474 0.94850004 6134556
-0.1070134 -0.17863008 0.94800007 6331674
-0.046921268 -0.17780691 0.94800007 9028955
-0.044451736 -0.17863008 0.94800007 10014299
-0.040356673 -0.17872386 0.94850004 9949529
-0.037121251 -0.17900693 0.95000005 8897571
-0.034646474 -0.17983183 0.95000005 8241187
-0.10888898 -0.17653218 0.95000005 6200336
-0.1060652 -0.17585835 0.94933337 6331680
-0.10324483 -0.17518568 0.94866675 6332193
-0.10042794 -0.17451419 0.94800007 6595102
-0.097958438 -0.17451419 0.94800007 6726428
-0.08314117 -0.17451419 0.94800007 7384111
-0.079848468 -0.17451419 0.94800007 7515945
-0.076555736 -0.17451419 0.94800007 7516197
-0.073263034 -0.17451419 0.94800007 7712298
-0.069970302 -0.17451419 0.94800007 7910193
-0.055210378 -0.17469828 0.94900006 8303691
-0.046921268 -0.17616051 0.94800007 8829517
-0.043628536 -0.17616051 0.94800007 8829261
-0.040420931 -0.17653218 0.95000005 8697929
-0.10558936 -0.17323251 0.95000005 6265636
-0.10300691 -0.17305017 0.94900006 6397487
-0.097821824 -0.17201105 0.94933337 6660135
-0.094764695 -0.17140204 0.94900006 6857258
-0.091775879 -0.17201105 0.94933337 7317556
-0.087929755 -0.17201105 0.94933337 7252778
-0.08561074 -0.17122144 0.94800007 7252520
-0.08314117 -0.17204462 0.94800007 7252526
-0.079890147 -0.17213491 0.94850004 7318567
-0.0766773 -0.1723164 0.94950002 7318813
-0.073417597 -0.17240758 0.95000005 7318561
-0.07008145 -0.1723164 0.94950008 7449900
-0.067571938 -0.17222524 0.94900006 7515699
-0.06503123 -0.17204461 0.94800007 7580729
-0.061803624 -0.17222524 0.949 7777346
-0.05844577 -0.1728678 0.94800007 7975248
-0.05609436 -0.17323251 0.95000005 8041290
-0.10063981 -0.16993284 0.95000005 6528298
-0.098165095 -0.16993284 0.95000005 6528293
-0.084966414 -0.16993284 0.95000005 7055392
-0.082491674 -0.16993284 0.95000005 7055407
-0.080016926 -0.16993284 0.95000005 7121187
-0.076717243 -0.16993284 0.95000005 7055641
-0.073417597 -0.16993284 0.95000005 7055634
-0.064893469 -0.1693829 0.95000005 7120941
-0.043651111 -0.10295135 0.94850004 6248896
-0.046195321 -0.097340144 0.95000005 67060
-0.046195321 -0.094865412 0.95000005 2041523
-0.044545516 -0.094865412 0.95000005 2895790
-0.046098072 -0.092196174 0.94800007 4081268
-0.044451736 -0.092196174 0.94800007 5921900
-0.069293015 0.016498342 0.95000005 5401103
-0.067643143 0.016498342 0.95000005 67060
-0.061043847 0.016498342 0.95000005 67060
-0.070117921 0.019798005 0.95000005 2767233
-0.067643143 0.01897309 0.95000005 2767234
-0.065168425 0.01897309 0.95000005 4149823
-0.06186875 0.01897309 0.95000005 2635132
-0.059393976 0.019798005 0.95000005 67060
-0.073417597 0.02309767 0.95000005 5531656
-0.070117921 0.022272754 0.95000005 4215614
-0.067643143 0.022272754 0.95000005 2898555
-0.065168425 0.022272754 0.95000005 4215615
-0.06186875 0.022272754 0.95000005 2766460
-0.058569074 0.022272754 0.95000005 1383609
-0.073417597 0.025572415 0.95000005 2766462
-0.070117921 0.025572415 0.95000005 2832507
-0.067643143 0.025572415 0.95000005 2832507
-0.065168425 0.025572415 0.95000005 4215359
-0.06186875 0.0247475 0.95000005 67060
-0.073417597 0.02887208 0.95000005 4280387
-0.070117921 0.02887208 0.95000005 4346433
-0.067643143 0.02887208 0.95000005 67060
-0.065168425 0.02887208 0.95000005 67060
-0.073417597 0.032171741 0.95000005 4149832
-0.070117921 0.032171741 0.95000005 2898043
-0.067643143 0.032171741 0.95000005 2832251
-0.065168425 0.032171741 0.95000005 1449655
-0.062143721 0.032446712 0.95000005 1844645
-0.05609436 0.032996658 0.95000005 67060
-0.073417597 0.034646489 0.95000005 5204492
-0.070117921 0.034646489 0.95000005 2832506
-0.067643143 0.034646489 0.95000005 67060
-0.065168425 0.034646489 0.95000005 5662979
-0.06186875 0.034646489 0.95000005 2766460
-0.054444488 0.034646489 0.95000005 1644037
-0.05279468 0.034646489 0.95000005 1188106
-0.07919199 0.037121251 0.95000005 3759624
-0.076717243 0.037121251 0.95000005 3495179
-0.073340312 0.037083045 0.94900006 4806680
-0.069970302 0.037043102 0.94800007 5202700
-0.067500733 0.037043102 0.94800007 2635644
-0.065098964 0.037082177 0.94900006 2766714
-0.06186875 0.037121251 0.95000005 67060
-0.058569074 0.037121251 0.95000005 2241915
-0.055269424 0.037121251 0.95000005 1318017
-0.051941957 0.03710128 0.94950002 199865
-0.049495 0.037121251 0.95000005 67060
-0.076717243 0.040420927 0.95000005 4745731
-0.07337939 0.04039922 0.94950002 4678176
-0.069970302 0.04033583 0.94800007 4478995
-0.067500733 0.040335834 0.94800007 2436739
-0.065065101 0.040357538 0.94850004 3490892
-0.06186875 0.040420927 0.95000005 2503290
-0.058569074 0.040420927 0.95000005 2637120
-0.055269424 0.040420927 0.95000005 1318480
-0.051941957 0.040400088 0.94950002 529282
-0.049495 0.040420927 0.95000005 595076
-0.076717243 0.043720592 0.95000005 4150028
-0.073302113 0.043651126 0.9485001 5071378
-0.069970302 0.043628547 0.94800007 4745481
-0.067500733 0.043628551 0.94800007 2375046
-0.06503123 0.043628551 0.94800007 2639445
-0.06186875 0.043720592 0.95000005 1977211
-0.058569074 0.043720592 0.95000005 2573379
-0.055269424 0.043720588 0.95000005 1253464
-0.051969744 0.043720588 0.95000005 726405
-0.049495 0.042895675 0.95000005 1780768
-0.076442264 0.046745285 0.95000005 2770949
-0.073341191 0.046970759 0.949 3558409
-0.069970302 0.046921264 0.94800007 4017934
-0.067500733 0.046921268 0.94800007 67060
-0.06503123 0.046921264 0.94800007 3493448
-0.061803628 0.046969894 0.94900006 1384634
-0.058569074 0.047020253 0.95000005 3232844
-0.055269424 0.047020253 0.95000005 1253252
-0.051969744 0.047020257 0.95000005 1316689
-0.075892307 0.049495 0.95000005 14457262
-0.073417597 0.049495 0.95000005 67060
-0.070044979 0.049442902 0.94900006 67060
-0.067500733 0.049390804 0.94800007 67060
-0.06503123 0.049390804 0.94800007 2176130
-0.061738502 0.049390804 0.94800007 67060
-0.058506556 0.049442902 0.94900006 2307974
-0.055269424 0.049495 0.95000005 1650814
-0.076442264 0.052244723 0.95000005 10912889
-0.073417597 0.051969752 0.95000005 989628
-0.070007637 0.051887259 0.94850004 1055417
-0.067500733 0.05186034 0.94800007 2109825
-0.06503123 0.05186034 0.94800007 3164236
-0.061738499 0.05186034 0.94800007 67060
-0.058506556 0.051915046 0.949 3362380
-0.055269424 0.051969752 0.95000005 1848443
-0.05279468 0.052794665 0.95000005 67060
-0.075892307 0.055269413 0.95000005 14457262
-0.073417597 0.055269416 0.95000005 8480922
-0.070117921 0.055269416 0.95000005 3624004
-0.067500733 0.055153057 0.94800007 2634882
-0.06503123 0.055153057 0.94800007 3361355
-0.061738502 0.055153057 0.94800007 2241409
-0.058476165 0.05518258 0.9485001 3821639
-0.055269424 0.055269416 0.95000005 1975934
-0.052244723 0.055544388 0.95000005 1906780
-0.049495 0.05609433 0.95000005 2695684
-0.075892307 0.058569074 0.95000005 14457262
-0.073417597 0.058569074 0.95000005 7229393
-0.070044979 0.058507424 0.94900006 1978240
-0.067500733 0.058445774 0.94800007 67060
-0.061738499 0.058445774 0.94800007 1251969
-0.058506556 0.058507424 0.949 2436419
-0.055269424 0.058569074 0.95000005 2237251
-0.051969744 0.058569074 0.95000005 2104133
-0.049495 0.058569074 0.95000005 1512063
-0.075892307 0.06186875 0.95000005 14457262
-0.073417597 0.06186875 0.95000005 2043266
-0.070007637 0.061770629 0.94850004 1317774
-0.067500733 0.061738499 0.94800007 1251209
-0.061738502 0.061738499 0.94800007 67060
-0.058506556 0.061803624 0.94900006 593340
-0.055269424 0.06186875 0.95000005 658875
-0.051969744 0.06186875 0.95000005 1380994
-0.049495 0.06186875 0.95000005 67060
-0.075892307 0.065168425 0.95000005 14457262
-0.073417597 0.065168425 0.95000005 2176381
-0.070793465 0.06503123 0.94800007 67060
-0.061738502 0.06503123 0.94800007 923771
-0.058537815 0.065134563 0.94950002 2175298
-0.055269424 0.065168425 0.95000005 1515134
-0.051969744 0.065168425 0.95000005 1972813
-0.049495 0.065168425 0.95000005 1184900
-0.047845196 0.065993346 0.95000005 67060
-0.075892307 0.067643173 0.95000005 14457262
-0.073341191 0.067571968 0.94900006 3623703
-0.061738502 0.067500763 0.94800007 1451140
-0.058569074 0.067643173 0.95000005 4218371
-0.055269424 0.067643173 0.95000005 1447554
-0.049495 0.067643173 0.95000005 67060
-0.047020257 0.067643173 0.95000005 2566676
-0.084141478 0.070942834 0.95000005 14457262
-0.076717243 0.070117921 0.95000005 9271647
-0.073537424 0.0702447 0.94800013 3627784
-0.064208068 0.07079348 0.94800007 3033107
-0.061738502 0.069970302 0.94800007 658620
-0.058506556 0.070044115 0.94900006 2372987
-0.055211246 0.070043243 0.949 2110844
-0.051969744 0.070117921 0.95000005 1907532
-0.049495 0.070117921 0.95000005 1315452
-0.047020257 0.070117921 0.95000005 1644417
-0.084141478 0.072592668 0.95000005 14457262
-0.076717243 0.073417589 0.95000005 12029061
-0.073341191 0.073340304 0.949 4482821
-0.070793465 0.073263019 0.94800007 1909638
-0.064208068 0.073263019 0.94800007 4679175
-0.061738502 0.073263019 0.94800007 2439547
-0.058445774 0.073263019 0.94800007 3822914
-0.055153072 0.073263019 0.94800007 2702403
-0.051860336 0.073263019 0.94800007 1316485
-0.049390804 0.073263019 0.94800007 67060
-0.046969898 0.073340304 0.94900006 1513341
-0.044545516 0.073417589 0.95000005 67060
-0.076717243 0.07671725 0.95000005 14457262
-0.073341191 0.076636493 0.94900006 9468005
-0.069970302 0.076555744 0.94800007 3690341
-0.067500733 0.077378921 0.94800007 5601053
-0.062561668 0.075732566 0.94800007 67060
-0.057622604 0.075732566 0.94800007 5073931
-0.054329872 0.075732566 0.94800007 3357973
-0.051585939 0.076281354 0.94800013 1646951
-0.049390804 0.076555744 0.94800007 1381759
-0.046995077 0.076677307 0.94950002 724408
-0.075892307 0.079191998 0.95000005 14457262
-0.073417597 0.080016918 0.95000005 9664608
-0.070007637 0.079891011 0.94850004 3756363
-0.067500733 0.080671638 0.94800007 67060
-0.051037136 0.079848461 0.94800007 1912846
-0.049390804 0.079848461 0.94800007 67060
-0.046995077 0.079975232 0.94950008 2301506
-0.044545516 0.080016911 0.95000005 1709441
-0.072592691 0.082491666 0.95000005 4545810
-0.070117921 0.082491666 0.95000005 2371462
-0.067500733 0.083141178 0.94800007 67060
-0.0658544 0.083141178 0.94800007 67060
-0.051860336 0.083964355 0.94800007 3758604
-0.049390804 0.083141178 0.94800007 1579409
-0.046921268 0.083141178 0.94800007 2104392
-0.043720581 0.082491666 0.95000005 1578888
-0.067643143 0.085791327 0.95000005 67060
-0.0658544 0.085610718 0.94800007 67060
-0.051037136 0.085610718 0.94800007 3822867
-0.049390804 0.085610718 0.94800007 67060
-0.047020257 0.085791327 0.95000005 1381505
-0.043720581 0.084966406 0.95000005 2039626
-0.040420931 0.085791327 0.95000005 67060
-0.037121251 0.085791327 0.95000005 988293
-0.082491674 0.089091018 0.95000005 14457262
-0.080841862 0.089091018 0.95000005 14457262
-0.067643143 0.089091018 0.95000005 3032087
-0.065351933 0.088416032 0.94866675 2110304
-0.051037136 0.088903457 0.94800007 67060
-0.049390804 0.088080272 0.94800007 1515399
-0.046945583 0.088127166 0.94850004 988033
-0.043720581 0.088266097 0.95000005 1449809
-0.040420931 0.088266104 0.95000005 923007
-0.037396219 0.087991133 0.95000005 1186398
-0.034646474 0.088266104 0.95000005 1851153
-0.083184585 0.091420755 0.94850004 11437448
-0.079932697 0.091468513 0.94900006 14457262
-0.076717243 0.091565765 0.95000005 9073758
-0.073692568 0.091840737 0.95000005 2173788
-0.070117921 0.092390679 0.95000005 1318787
-0.067643143 0.091565758 0.95000005 2965013
-0.06503123 0.091372997 0.94800007 923580
-0.062012892 0.091647387 0.94800013 67060
-0.05844577 0.092196174 0.94800007 5202948
-0.054878674 0.091647387 0.94800013 1780131
