# .PCD v0.7 - Point Cloud Data file format
VERSION 0.7
FIELDS x y z rgba
SIZE 4 4 4 4
TYPE F F F U
COUNT 1 1 1 1
WIDTH 1089
HEIGHT 1
VIEWPOINT 0 0 0 1 0 0 0
POINTS 1089
DATA ascii
-0.0016828044 -0.14893045 0.96900004 4225686
0.00056094548 -0.14864998 0.96900004 1993365
-0.060581855 -0.1447234 0.96900004 1993365
-0.058338117 -0.14584526 0.96900004 4747666
-0.0016828044 -0.14640619 0.96900004 6851223
0.001121891 -0.14584526 0.96900004 5604762
0.0033656729 -0.14556479 0.96900004 1993365
-0.060581855 -0.14135773 0.96900004 1993365
-0.058338117 -0.14191866 0.96900004 1993365
0.0016828364 -0.14304054 0.96900004 1993365
0.0044875424 -0.1424796 0.96900004 8101792
0.0067313137 -0.14219913 0.96900004 1993365
-0.058057651 -0.13967489 0.96900004 6457755
0.0075727319 -0.13967489 0.96900004 8035488
-0.058338117 -0.13743113 0.96900004 4750488
0.0084141502 -0.13715065 0.96900004 7904423
0.010657932 -0.13687018 0.96900004 4094876
-0.057777181 -0.13406548 0.96900004 5143450
0.0084141502 -0.13462642 0.96900004 8036012
0.010938404 -0.13378499 0.96900004 5080483
0.013462627 -0.13294357 0.96900004 8364473
-0.057216246 -0.12957792 0.96900004 1993365
-0.055533376 -0.13041934 0.96900004 4948638
0.010938404 -0.13041934 0.96900004 3504284
-0.057216246 -0.12789512 0.96900004 7903135
-0.055533376 -0.12621225 0.96900004 8891823
0.010938404 -0.12705368 0.96900004 5410470
-0.055533376 -0.1245294 0.96900004 9414053
0.0084141502 -0.1245294 0.96900004 7319224
0.010938404 -0.1245294 0.96900004 8891835
-0.055533376 -0.12200517 0.96900004 8296349
-0.053850573 -0.12200517 0.96900004 1993365
-0.0016828044 -0.12116375 0.96900004 6594236
0.00084141822 -0.12200517 0.96900004 4095908
0.0042070751 -0.12200517 0.96900004 5344436
0.0075727319 -0.12200517 0.96900004 4819627
-0.055533376 -0.11863951 0.96900004 6917540
-0.053289618 -0.11835904 0.96900004 1993365
-0.0039266078 -0.11835903 0.96900004 3702951
-0.0016828044 -0.11863951 0.96900004 4820404
0.00084141822 -0.11863951 0.96900004 4754096
0.0042070751 -0.11863951 0.96900004 6070459
0.0072922595 -0.11891999 0.96900004 6463157
-0.057216246 -0.11611529 0.96900004 7179691
-0.055533376 -0.11527386 0.96900004 7179934
-0.053289618 -0.11499339 0.96900004 3765910
-0.049643498 -0.11443243 0.96900004 1993365
-0.046277825 -0.11443243 0.96900004 5278126
-0.042912155 -0.11443243 0.96900004 1993365
-0.040387943 -0.11443243 0.96900004 1993365
-0.026083853 -0.11611529 0.96900004 3831707
-0.022718213 -0.11527386 0.96900004 3963292
-0.0067313458 -0.11527386 0.96900004 5214902
-0.0042070751 -0.11527386 0.96900004 3439785
-0.0016828044 -0.11527386 0.96900004 7646929
0.00056094548 -0.11555433 0.96900004 3899303
-0.057777181 -0.11218868 0.96900004 5208972
-0.055533376 -0.1119082 0.96900004 6982806
-0.053009138 -0.1119082 0.96900004 3438233
-0.049923968 -0.11218868 0.96900004 7969969
-0.045997359 -0.11218868 0.96900004 6527161
-0.042912155 -0.1119082 0.96900004 6129844
-0.040387943 -0.1119082 0.96900004 4552096
-0.038705081 -0.1119082 0.96900004 4355999
-0.033656601 -0.11106677 0.96900004 7513257
-0.031132363 -0.11106677 0.96900004 4425122
-0.028608123 -0.1119082 0.96900004 7248820
-0.018511105 -0.1119082 0.96900004 4027286
-0.015986899 -0.11106677 0.96900004 4686495
-0.013462627 -0.11106677 0.96900004 8763092
-0.010938389 -0.11106677 0.96900004 1993365
-0.0078532156 -0.11218868 0.96900004 4030374
-0.0039266078 -0.11218868 0.96900004 3766688
-0.0016828044 -0.1119082 0.96900004 7247286
0.00056094548 -0.11218868 0.96900004 5672356
0.0033656729 -0.11274962 0.96900004 7841973
0.0067313137 -0.11106677 0.96900004 1993365
-0.057216246 -0.10938397 0.96900004 6187409
-0.055533376 -0.10938397 0.96900004 6652569
-0.053009138 -0.10938397 0.96900004 4686236
-0.050484899 -0.10938397 0.96900004 1993365
-0.038705081 -0.10938397 0.96900004 1993365
-0.034498006 -0.10938397 0.96900004 1993365
-0.031132363 -0.10938397 0.96900004 4424870
-0.010096955 -0.10938397 0.96900004 8105162
-0.057216246 -0.10685971 0.96900004 3629710
-0.055533376 -0.10685971 0.96900004 1993365
-0.053289618 -0.10657924 0.96900004 1993365
-0.050484899 -0.10685971 0.96900004 6983846
-0.037022274 -0.10685971 0.96900004 1993365
-0.034778472 -0.10714018 0.96900004 7181998
-0.057216246 -0.10349406 0.96900004 1993365
-0.055533376 -0.10349406 0.96900004 6194331
-0.053850573 -0.10349406 0.96900004 4160413
-0.055533376 -0.1009698 0.96900004 6260901
-0.034676012 -0.18099192 0.97400004 4811380
-0.019145003 -0.18130684 0.97266674 5139314
-0.016044207 -0.1815581 0.97250009 3631231
-0.013532094 -0.18099192 0.97400004 5733488
-0.038904794 -0.17845467 0.97400004 1993365
-0.034676012 -0.17930044 0.97400004 1993365
-0.025346652 -0.17827234 0.97300005 5271412
-0.022811992 -0.17827234 0.97300005 1993365
-0.020256493 -0.17893228 0.97200006 5337981
-0.016036393 -0.17893228 0.97200006 1993365
-0.013504308 -0.17808825 0.97200006 5930366
-0.011840606 -0.17760891 0.97400004 1993365
-0.042287838 -0.17422588 0.97400004 1993365
-0.040596347 -0.17507163 0.97400004 3830414
-0.037777137 -0.17535356 0.9740001 4486023
-0.034676012 -0.17507163 0.97400004 4814218
-0.031574931 -0.17535356 0.9740001 5535361
-0.027882177 -0.17573676 0.97300005 5469308
-0.013504308 -0.17555614 0.97200006 5929865
-0.0107048 -0.17523313 0.97333336 4880015
-0.045670874 -0.17253435 0.97400004 5732742
-0.043133579 -0.17253435 0.97400004 3633549
-0.040512986 -0.17218006 0.97200006 5404806
-0.038262237 -0.17274275 0.97200006 3174031
-0.03460481 -0.17218006 0.97200006 5600900
-0.030947402 -0.17274275 0.97200006 3173775
-0.028696693 -0.17386812 0.97200006 5469312
-0.011260547 -0.17286085 0.97266674 1993365
-0.045670874 -0.1699971 0.97400004 1993365
-0.043090161 -0.16982256 0.97300005 3764364
-0.040512986 -0.16964802 0.97200006 5469828
-0.037980899 -0.16964802 0.97200006 2846097
-0.034886148 -0.16992937 0.97200006 4354698
-0.031228747 -0.17049205 0.97200006 5272707
-0.010690908 -0.16992937 0.97200006 3633042
-0.0076040081 -0.16982342 0.97300005 4617623
-0.0050745271 -0.16915134 0.97400004 7241882
-0.046493173 -0.16652897 0.97350001 3628936
-0.043889016 -0.16711597 0.97200006 5531264
-0.010128214 -0.16711597 0.97200006 8295074
-0.0073148571 -0.16655329 0.97200006 3895961
-0.0042261784 -0.16652897 0.97350001 4748697
-0.0016914876 -0.16576831 0.97400004 7637150
-0.052436888 -0.16238527 0.97400004 1993365
-0.049823247 -0.16298009 0.97250009 2711435
-0.047265109 -0.16373989 0.97200006 1993365
-0.006752186 -0.16373989 0.97200006 8295851
-0.0042201001 -0.16289586 0.97200006 3502744
-0.058357224 -0.15984802 0.97400004 3892104
-0.055819929 -0.16069379 0.97400004 1993365
-0.052436888 -0.16069379 0.97400004 1993365
-0.050641201 -0.16036382 0.97200006 4472680
-0.0042201001 -0.16036382 0.97200006 8559262
-0.0016914876 -0.16069379 0.97400004 7376034
-0 -0.15900224 0.97400004 1993365
-0.057996582 -0.1576581 0.97266674 1993365
-0.0548613 -0.15783176 0.97200006 3495300
-0.052329216 -0.15867576 0.97200006 1993365
-0.003376093 -0.15783176 0.97200006 1993365
-0.0016880144 -0.15783176 0.97200006 1993365
-0 -0.15731077 0.97400004 1993365
-0.057996582 -0.15484354 0.97266674 3104650
-0.055705309 -0.15445568 0.97200006 3561346
-0.003376093 -0.15529968 0.97200006 7705499
-0.0016880144 -0.15529968 0.97200006 7243421
0.00084575993 -0.15461457 0.97300005 5014424
-0.060894459 -0.15054467 0.97400004 1993365
-0.059142187 -0.15123588 0.97300005 5657984
0.0011253643 -0.15136093 0.97200006 1993365
0.0033830397 -0.15054467 0.97400004 7639197
-0.060769416 -0.14854753 0.97200006 6254736
-0.059081402 -0.14854753 0.97200006 5923978
0.0042201001 -0.14854753 0.97200006 4750234
0.0067660469 -0.14716165 0.97400004 1993365
-0.061894804 -0.14629678 0.97200006 3633555
0.005064107 -0.14601545 0.97200006 4883867
0.0076048602 -0.1453208 0.97300005 5146522
0.010149087 -0.14547016 0.97400004 1993365
-0.0642775 -0.14293288 0.97400004 7509138
-0.061894804 -0.14292072 0.97200006 3634839
0.0084402002 -0.14263937 0.97200006 5145754
0.010978349 -0.14271319 0.97250009 1993365
0.013532094 -0.14208713 0.97400004 8692647
0.015223615 -0.14208713 0.97400004 8493990
-0.0642775 -0.13954985 0.97400004 4817832
-0.061613455 -0.1392633 0.97200006 4686237
0.01125361 -0.13954464 0.97200006 4094873
0.013504308 -0.1392633 0.97200006 8297645
0.015777035 -0.13917302 0.97333336 4749720
-0.0642775 -0.13616684 0.97400004 7773102
-0.061613455 -0.13588722 0.97200006 4553886
0.013504308 -0.13588724 0.97200006 8233138
0.016053744 -0.13602702 0.97300005 3504025
-0.061677713 -0.13349235 0.97300005 4817819
-0.059081402 -0.13335516 0.97200006 7182501
0.016053744 -0.13349235 0.97300005 8823478
-0.060894459 -0.13109228 0.97400004 1993365
-0.058559254 -0.13119476 0.97266674 5801887
0.013504308 -0.13082311 0.97200006 8628661
0.015223615 -0.13109228 0.97400004 1993365
-0.060894459 -0.12855504 0.97400004 1993365
-0.058559254 -0.12725252 0.97266674 1993365
0.013504308 -0.12744704 0.97200006 9485774
0.015223615 -0.12770927 0.97400004 5607855
-0.058327701 -0.12426198 0.97350001 6129818
0.01097227 -0.12322693 0.97200006 1993365
0.013504308 -0.12407093 0.97200006 10997966
0.015223615 -0.12432622 0.97400004 7119036
-0.060894459 -0.12009746 0.97400004 1993365
-0.058298178 -0.12166391 0.97300005 4816281
0.01097227 -0.12153886 0.97200006 6069174
0.013532094 -0.1209432 0.97400004 11853807
0.015223615 -0.1209432 0.97400004 7448768
-0.061740234 -0.11840592 0.97400004 6784654
-0.058237396 -0.11900682 0.97200006 4619672
0.0084402002 -0.11816279 0.97200006 9679812
0.010978349 -0.11906761 0.97250003 4687525
-0.060894459 -0.11586866 0.97400004 1993365
-0.058518734 -0.1153494 0.97200006 5602961
-0.027852654 -0.11478671 0.97200006 1993365
-0.025320601 -0.11478671 0.97200006 1993365
0.0016880465 -0.11478671 0.97200006 7446974
0.0042201001 -0.11563075 0.97200006 6265528
0.0076005184 -0.11568979 0.97250009 3570334
0.010149087 -0.11671443 0.97400004 9682093
-0.0642775 -0.11333141 0.97400004 5064814
-0.061677709 -0.11237015 0.97300005 2909838
-0.059081402 -0.11141063 0.97200006 6119814
-0.048953187 -0.11141063 0.97200006 1993365
-0.047265109 -0.11141063 0.97200006 8561337
-0.027008615 -0.11225466 0.97200006 1993365
-0.025320601 -0.11225466 0.97200006 1993365
-0.022788547 -0.11225466 0.97200006 2978201
-0.020256493 -0.11225466 0.97200006 6059404
-0.006752186 -0.11141063 0.97200006 1993365
-0.005064107 -0.11141063 0.97200006 6922434
0.0016880465 -0.11141063 0.97200006 1993365
0.0045014359 -0.11197333 0.97200006 6067624
0.0078890957 -0.11268999 0.97333336 7644859
-0.061677713 -0.1089906 0.97300005 3497611
-0.059081402 -0.10887858 0.97200006 5525641
-0.052329216 -0.10803456 0.97200006 1993365
-0.048953187 -0.10887858 0.97200006 1993365
-0.046421103 -0.10887858 0.97200006 3503513
-0.043045007 -0.10887858 0.97200006 6262952
-0.040512986 -0.10887858 0.97200006 7445693
-0.038824908 -0.10803456 0.97200006 1993365
-0.031228747 -0.10803456 0.97200006 4424874
-0.027866548 -0.10893416 0.97250009 3307168
-0.025372701 -0.10910261 0.97400004 1993365
-0.022835437 -0.10910261 0.97400004 4222880
-0.019433293 -0.1089906 0.97300005 4546697
-0.016036393 -0.10887858 0.97200006 4881574
-0.013504308 -0.10887858 0.97200006 8960476
-0.011253601 -0.10859724 0.97200006 4162730
-0.0075961929 -0.10887858 0.97200006 6132406
-0.0042201001 -0.10887858 0.97200006 5870771
-0.0016880144 -0.10887858 0.97200006 7776201
0.00084402325 -0.10887858 0.97200006 4163242
0.0042253099 -0.1089906 0.97300005 3898522
0.0073206252 -0.10867134 0.97266674 2780821
-0.060769416 -0.10634654 0.97200006 4933004
-0.059081402 -0.10634654 0.97200006 4473738
-0.048953187 -0.10634654 0.97200006 1993365
-0.046421103 -0.10634654 0.97200006 7181736
-0.043045007 -0.10634654 0.97200006 7576495
-0.040512986 -0.10634654 0.97200006 7906256
-0.038824908 -0.10634654 0.97200006 8104900
-0.033760801 -0.10634654 0.97200006 1993365
-0.031228747 -0.10634654 0.97200006 4554148
-0.027909964 -0.10656536 0.97400004 4423844
-0.025372701 -0.10656536 0.97400004 1993365
-0.022835437 -0.10656536 0.97400004 3239066
-0.019412454 -0.10634654 0.97200006 5795224
-0.016036393 -0.10634654 0.97200006 9086906
-0.013504308 -0.10634654 0.97200006 9027799
-0.01098441 -0.10645595 0.97300005 7775683
-0.0075961929 -0.10634654 0.97200006 7185599
-0.0042201001 -0.10634654 0.97200006 4557227
-0.0016880144 -0.10634654 0.97200006 8239302
0.00084402325 -0.10634654 0.97200006 4619168
0.0042287833 -0.10656536 0.97400004 4487565
0.0076048602 -0.10645595 0.97300005 3174795
-0.060831938 -0.10392214 0.97300005 1993365
-0.059081402 -0.10381448 0.97200006 4020359
-0.052329216 -0.10381448 0.97200006 4225949
-0.049797192 -0.10381448 0.97200006 1993365
-0.046468861 -0.10392042 0.97300005 4291744
-0.043089297 -0.10392042 0.97300005 4554657
-0.040512986 -0.10381448 0.97200006 8037569
-0.038000874 -0.10386744 0.97250009 1993365
-0.034622174 -0.10386744 0.97250009 6330293
-0.031293005 -0.10402808 0.97400004 5935797
-0.027895203 -0.10397425 0.97350007 5541295
-0.025346652 -0.10392214 0.97300005 4096937
-0.022835437 -0.10402808 0.97400004 1993365
-0.019452397 -0.10402808 0.97400004 4026774
-0.016060706 -0.10397425 0.97350001 4882333
-0.013532094 -0.10402808 0.97400004 8303027
-0.010994829 -0.10402808 0.97400004 1993365
-0.0076040081 -0.10392042 0.97300005 4358561
-0.0042287833 -0.10402808 0.97400004 4162204
-0.0016914876 -0.10402808 0.97400004 7774887
0.00084575993 -0.10402808 0.97400004 5410470
0.0042287833 -0.10402808 0.97400004 4228264
0.0067660469 -0.10402808 0.97400004 1993365
0.010149087 -0.10318234 0.97400004 8695478
-0.060894459 -0.1014908 0.97400004 1993365
-0.057996582 -0.10078919 0.97266674 3172759
-0.054579966 -0.10015702 0.97200006 4752036
-0.05238305 -0.10054083 0.97300005 4029856
-0.050146841 -0.10085749 0.97333336 4818085
-0.04651662 -0.1014908 0.97400004 6788013
-0.040596347 -0.1014908 0.97400004 7644097
-0.038059048 -0.1014908 0.97400004 7906237
-0.034676012 -0.1014908 0.97400004 7841218
-0.03101108 -0.10092696 0.9740001 5739185
-0.027909964 -0.10064504 0.97400004 5739181
-0.025346652 -0.10054083 0.97300005 5539999
-0.022811124 -0.1005417 0.97300005 4094361
-0.019452397 -0.10064504 0.97400004 5077398
-0.01606939 -0.10064504 0.97400004 5143441
-0.013532094 -0.10064504 0.97400004 5997185
-0.010994829 -0.10064504 0.97400004 4159895
-0.0076048765 -0.10054171 0.97300005 4812434
-0.0042287833 -0.10064504 0.97400004 4618128
-0.0016914876 -0.1014908 0.97400004 5673621
-0 -0.1014908 0.97400004 1993365
0.0078775184 -0.10071971 0.97200006 6260905
0.010149087 -0.1014908 0.97400004 9081271
-0.057511482 -0.098107778 0.97400004 1993365
-0.054974183 -0.098107778 0.97400004 6066614
-0.027909964 -0.09726201 0.97400004 4683662
-0.025372701 -0.09726201 0.97400004 3164538
-0.022823282 -0.097211644 0.97350001 3369609
-0.019452397 -0.09726201 0.97400004 4552084
-0.01606939 -0.09726201 0.97400004 2845586
-0.013504308 -0.09706229 0.97200006 5207954
-0.01098441 -0.09716215 0.97300005 3172496
-0.0075961929 -0.097062297 0.97200006 5800343
-0.0045106979 -0.096980087 0.9740001 7640993
0.0084575666 -0.098107778 0.97400004 8163734
-0.02762804 -0.094160914 0.9740001 2976134
-0.025372701 -0.094724759 0.97400004 3361658
-0.023681212 -0.093878992 0.97400004 3106702
-0.015223646 -0.093878992 0.97400004 1993365
-0.013532094 -0.093878992 0.97400004 7183283
-0.011276755 -0.094160914 0.9740001 5671070
-0.0076074814 -0.093830369 0.97350007 6525346
-0.0050745271 -0.094724759 0.97400004 11974585
-0.01606939 -0.091341734 0.97400004 7905720
-0.013532094 -0.091341734 0.97400004 7774649
-0.01099483 -0.091341734 0.97400004 4555434
-0.0076118233 -0.091341734 0.97400004 5606055
-0.015223646 -0.088804454 0.97400004 5410731
-0.013532094 -0.088804454 0.97400004 1993365
-0.01099483 -0.088804454 0.97400004 1993365
-0.0084575666 -0.089650199 0.97400004 1993365
-0.020360693 -0.18324615 0.97700006 4806504
-0.013573774 -0.18324615 0.97700006 5530474
-0.039873004 -0.1815494 0.97700006 4216674
-0.037327927 -0.1815494 0.97700006 4415857
-0.032237772 -0.1815494 0.97700006 5009260
-0.02545085 -0.1815494 0.97700006 4677991
-0.022057392 -0.1815494 0.97700006 4877165
-0.011877077 -0.1815494 0.97700006 5930870
-0.042418085 -0.17900433 0.97700006 1993365
-0.040721387 -0.17900433 0.97700006 3764622
-0.037327927 -0.17900433 0.97700006 1993365
-0.034782819 -0.17815596 0.97700006 3829645
-0.031672187 -0.17928712 0.97700012 4354182
-0.027147548 -0.17900433 0.97700006 1993365
-0.010745903 -0.17928712 0.97700012 1993365
-0.045811545 -0.1747625 0.97700006 1993365
-0.043549221 -0.17589365 0.97700012 5732738
-0.0084836176 -0.1747625 0.97700006 6783889
-0.047508243 -0.17221741 0.97700006 1993365
-0.0084836176 -0.17306575 0.97700006 6652049
-0.047508243 -0.16967233 0.97700006 5798280
-0.0033934598 -0.16967233 0.97700006 1993365
-0.049205005 -0.16627888 0.97700006 5265015
-0 -0.16627888 0.97700006 1993365
-0.05825419 -0.1640166 0.97700012 1993365
-0.055143509 -0.16288543 0.97700006 5260409
-0.052598398 -0.16458218 0.97700006 5390709
-0.0016966974 -0.16373381 0.97700006 7637921
-0 -0.16373381 0.97700006 1993365
-0.061082017 -0.159492 0.97700006 1993365
-0.059385318 -0.16118874 0.97700006 1993365
-0.05429516 -0.16118874 0.97700006 1993365
0.00084836496 -0.16034037 0.97700006 5408155
-0.061082017 -0.15694693 0.97700006 4091528
0.0016967299 -0.1577953 0.97700006 8496033
0.0033934598 -0.15609854 0.97700006 1993365
-0.059385318 -0.15440185 0.97700006 5656441
0.0033934598 -0.15440185 0.97700006 1993365
-0.064475477 -0.15100835 0.97700006 6652294
-0.061930396 -0.15185672 0.97700006 4223887
0.0033934598 -0.1527051 0.97700006 1993365
-0.066172235 -0.14761493 0.97700006 1993365
-0.064475477 -0.14846329 0.97700006 4355219
-0.062778778 -0.14931166 0.97700006 1993365
0.0076352526 -0.14846329 0.97700006 1993365
-0.067020588 -0.14506984 0.97700006 4289677
-0.064475477 -0.14591822 0.97700006 1993365
0.011877077 -0.14591822 0.97700006 1993365
0.013573774 -0.14422147 0.97700006 1993365
-0.069565631 -0.14252478 0.97700006 5997453
-0.067020588 -0.14252478 0.97700006 6981772
-0.067020588 -0.13997968 0.97700006 3305877
-0.067868941 -0.13743457 0.97700006 7773604
0.018663963 -0.13658623 0.97700006 12105652
-0.064475477 -0.13319279 0.97700006 8232369
-0.062778778 -0.13234444 0.97700006 1993365
0.016967235 -0.13234444 0.97700006 1993365
0.018663963 -0.13404115 0.97700006 10005166
-0.064475477 -0.13064769 0.97700006 7441048
-0.062778778 -0.13064769 0.97700006 7440028
0.016967235 -0.13064769 0.97700006 8827057
0.018663963 -0.13064769 0.97700006 8695471
-0.061930396 -0.12810263 0.97700006 1993365
0.016967235 -0.12810263 0.97700006 1993365
-0.061930396 -0.12470916 0.97700006 3240598
0.016967235 -0.12470916 0.97700006 11984375
0.018663963 -0.12470916 0.97700006 1993365
-0.062213194 -0.1215985 0.97700012 3700119
0.016967235 -0.12131572 0.97700006 12839666
0.018663963 -0.12131572 0.97700006 7382463
-0.064475477 -0.11877062 0.97700006 6520718
-0.062778778 -0.11707392 0.97700006 1993365
0.011877077 -0.11707392 0.97700006 1993365
0.013573774 -0.11792228 0.97700006 7448509
0.016118869 -0.11792227 0.97700006 7447999
-0.062778778 -0.11537718 0.97700006 1993365
0.010180347 -0.11537718 0.97700006 1993365
0.010180347 -0.11368048 0.97700006 1993365
0.0084836176 -0.11028704 0.97700006 6122892
-0.062778778 -0.10689359 0.97700006 5392524
0.0084836176 -0.10519684 0.97700006 1993365
0.010180347 -0.10689359 0.97700006 7905987
0.0084836176 -0.10350015 0.97700006 1993365
-0.049205005 -0.10010666 0.97700006 1993365
-0.046659894 -0.10010666 0.97700006 4292257
-0.042418085 -0.1018034 0.97700006 1993365
-0.039024625 -0.10010666 0.97700006 1993365
-0.037327927 -0.10010666 0.97700006 1993365
-0.034782819 -0.10010666 0.97700006 4949416
-0.032237772 -0.10010666 0.97700006 7579580
-0.0016966974 -0.10010666 0.97700006 6001037
0.0011311533 -0.10067224 0.97700012 6193823
0.0033934598 -0.10095502 0.97700006 1993365
0.0067868871 -0.10010666 0.97700006 1993365
-0.052598398 -0.098409966 0.97700006 1993365
-0.034782819 -0.098409966 0.97700006 1993365
-0.031106597 -0.097844385 0.97700012 3767196
-0.0033934598 -0.098409966 0.97700006 8171424
-0.0016966974 -0.09756159 0.97700006 4161432
-0 -0.09756159 0.97700006 1993365
-0.030541008 -0.095016517 0.97700006 1993365
-0.02884431 -0.093319766 0.97700006 5003354
-0.02545085 -0.093319766 0.97700006 5930370
-0.022057392 -0.094168141 0.97700006 3567253
-0.01922952 -0.094450936 0.97700012 3174810
-0.016967235 -0.094168141 0.97700006 6459566
-0.010180315 -0.093319766 0.97700006 1993365
-0.0042418088 -0.094168141 0.97700006 9354439
-0.027147548 -0.091623075 0.97700006 6708845
-0.02545085 -0.091623075 0.97700006 8486791
-0.023754153 -0.091623075 0.97700006 8828320
-0.018663932 -0.091623075 0.97700006 1993365
-0.018663932 -0.089926325 0.97700006 1993365
-0.016967235 -0.089077979 0.97700006 9090493
-0.0076352684 -0.089077979 0.97700006 5870773
-0.015270536 -0.086532876 0.97700006 1993365
-0.013573774 -0.086532876 0.97700006 9289169
-0.011028696 -0.086532876 0.97700006 5740212
-0.045952216 -0.18125591 0.98000002 2447986
-0.043682944 -0.18153958 0.98000002 4411474
-0.030634789 -0.18210687 0.98000002 4943459
-0.028365558 -0.18153957 0.98000002 3828344
-0.023827095 -0.18210687 0.98000002 4744801
-0.010211574 -0.18210687 0.98000002 5799804
-0.054461882 -0.17700104 0.98000002 1993365
-0.051908955 -0.17700104 0.98000002 4288901
-0.049356092 -0.17700104 0.98000002 5994873
-0.046519518 -0.17756836 0.98000002 3108238
-0.044250242 -0.17870301 0.98000002 1993365
-0.030634789 -0.17870301 0.98000002 1993365
-0.028932881 -0.17870301 0.98000002 5534842
-0.0085096667 -0.17785203 0.98000002 4421520
-0.055312835 -0.17529914 0.98000002 6256507
-0.051908955 -0.17529914 0.98000002 4157573
-0.049356092 -0.17529914 0.98000002 5863287
-0.047654118 -0.17529914 0.98000002 5798272
-0.0068077594 -0.17529914 0.98000002 7178386
-0.055029184 -0.17302988 0.98000002 4814214
-0.051908955 -0.17274624 0.98000002 1993365
-0.049356092 -0.17274623 0.98000002 5798020
-0.0068077594 -0.17359719 0.98000002 1993365
-0.0042548333 -0.17189527 0.98000002 4683928
-0.058433067 -0.16905873 0.98000002 1993365
-0.055312835 -0.16934237 0.98000002 4421777
-0.051908955 -0.16934237 0.98000002 3108497
-0.049356092 -0.16934237 0.98000002 5730434
-0.0017019074 -0.16934237 0.98000002 7637146
-0 -0.16849142 0.98000002 1993365
-0.066375427 -0.16508755 0.98000002 1993365
-0.064673461 -0.16508755 0.98000002 7243650
-0.062120564 -0.16593851 0.98000002 4749198
-0.058716714 -0.16678946 0.98000002 7113101
-0.055312835 -0.1659385 0.98000002 5206409
-0.051908955 -0.16678946 0.98000002 5662330
0.0017019399 -0.1659385 0.98000002 7969438
0.0042548333 -0.16678946 0.98000002 1993365
-0.066375427 -0.1633856 0.98000002 7309447
-0.064673461 -0.1633856 0.98000002 1993365
-0.062120564 -0.1633856 0.98000002 4421519
-0.059567668 -0.1633856 0.98000002 6518402
0.0017019399 -0.1633856 0.98000002 8166563
-0.066375427 -0.1608327 0.98000002 4421778
-0.064673461 -0.1608327 0.98000002 1993365
-0.062404227 -0.16111636 0.98000002 3502225
0.0017019399 -0.16168369 0.98000002 8494756
0.0034038797 -0.1608327 0.98000002 1993365
-0.066375427 -0.15742885 0.98000002 1993365
-0.064673461 -0.15742885 0.98000002 4355980
-0.062971547 -0.15742885 0.98000002 4223370
0.0034038797 -0.15827982 0.98000002 8364702
-0.066375427 -0.15402497 0.98000002 4356237
-0.064673461 -0.15402497 0.98000002 4290186
-0.062404227 -0.15430865 0.98000002 4811398
0.005105787 -0.153174 0.98000002 8297627
-0.066375427 -0.15147205 0.98000002 6783875
0.005105787 -0.15147205 0.98000002 1993365
-0.06977924 -0.14806819 0.98000002 6718603
-0.067510031 -0.14920282 0.98000002 5143179
0.0085096667 -0.14977014 0.98000002 1993365
0.010211607 -0.14806819 0.98000002 1993365
-0.070630223 -0.14551531 0.98000002 1993365
0.013615455 -0.14636628 0.98000002 9150881
-0.070913896 -0.14182779 0.98000002 3437205
-0.070630223 -0.13955855 0.98000002 6979731
-0.070630223 -0.13700563 0.98000002 3503765
-0.066942737 -0.13672198 0.98000002 4029337
-0.06977924 -0.13360178 0.98000002 1993365
-0.06722638 -0.13360178 0.98000002 6459040
0.0198559 -0.13331813 0.98000002 8362401
-0.06977924 -0.13019791 0.98000002 4750232
-0.06722638 -0.13019791 0.98000002 5932187
-0.064673461 -0.12934697 0.98000002 6589591
0.0198559 -0.12991427 0.98000002 7838122
-0.06722638 -0.127645 0.98000002 6917535
-0.064673461 -0.127645 0.98000002 6655382
-0.062971547 -0.127645 0.98000002 1993365
0.019572243 -0.127645 0.98000002 10666966
0.022125121 -0.127645 0.98000002 12174547
-0.06977924 -0.12509209 0.98000002 4554135
-0.06722638 -0.1250921 0.98000002 3240599
-0.064673461 -0.12509209 0.98000002 6719114
0.020423213 -0.12509209 0.98000002 11913173
0.022125121 -0.12594305 0.98000002 12044503
-0.06977924 -0.12253918 0.98000002 1993365
-0.06722638 -0.12168823 0.98000002 4159121
-0.064673461 -0.12168823 0.98000002 6521485
0.020423213 -0.12168823 0.98000002 13097439
-0.06722638 -0.11828437 0.98000002 4158353
-0.064673461 -0.11743341 0.98000002 5920910
0.019288588 -0.11856803 0.98000002 9550026
-0.066375427 -0.1148805 0.98000002 3693964
-0.064673461 -0.11573146 0.98000002 5328766
0.011913547 -0.1148805 0.98000002 5475501
0.013615455 -0.11573146 0.98000002 10336975
0.016168363 -0.11573146 0.98000002 7119295
0.018721275 -0.11573146 0.98000002 1993365
-0.064673461 -0.1123276 0.98000002 1993365
-0.064673461 -0.10977471 0.98000002 1993365
0.011062577 -0.10977471 0.98000002 1993365
-0.062971547 -0.10551986 0.98000002 1993365
-0.062971547 -0.10381796 0.98000002 1993365
-0.044250242 -0.102116 0.98000002 7183024
0.005105787 -0.102116 0.98000002 10927291
-0.059567668 -0.10041405 0.98000002 1993365
-0.042548336 -0.10041405 0.98000002 1993365
-0.040846426 -0.10041405 0.98000002 1993365
0.005105787 -0.10041405 0.98000002 1993365
-0.054461882 -0.09701018 0.98000002 1993365
-0.051058002 -0.098712139 0.98000002 1993365
-0.049356092 -0.098712139 0.98000002 1993365
-0.046519518 -0.098144822 0.98000002 3504028
-0.042548336 -0.098712139 0.98000002 1993365
-0.039995439 -0.098712139 0.98000002 4687527
-0.03744255 -0.098712139 0.98000002 1993365
-0.034889624 -0.09701018 0.98000002 1993365
-0.03233676 -0.09701018 0.98000002 6722972
0.0017019399 -0.097861156 0.98000002 5126293
0.0042548333 -0.098712139 0.98000002 1993365
0.0068077273 -0.098712139 0.98000002 8360604
-0.034038667 -0.095308281 0.98000002 1993365
-0.03176944 -0.09417364 0.98000002 3304848
-0.020423213 -0.093606323 0.98000002 6988209
-0.0034038797 -0.093606323 0.98000002 1993365
-0.0017019074 -0.094457299 0.98000002 4365249
-0 -0.095308281 0.98000002 4659879
-0.031485774 -0.091904417 0.98000002 5265007
-0.028365558 -0.090769783 0.98000002 2974854
-0.025529001 -0.090202458 0.98000002 7700876
-0.022692448 -0.090769783 0.98000002 4358557
-0.020423213 -0.091053441 0.98000002 5607596
-0.0045384848 -0.091337107 0.98000002 8367290
-0.028081894 -0.088500544 0.98000002 6247802
-0.025529001 -0.088500544 0.98000002 6911624
-0.023827095 -0.088500544 0.98000002 8361879
-0.018721242 -0.088500544 0.98000002 10140355
-0.0068077594 -0.088500544 0.98000002 1993365
-0.01616838 -0.08594764 0.98000002 1993365
-0.013615455 -0.085096687 0.98000002 1993365
-0.011913547 -0.085096687 0.98000002 1993365
-0.0085096667 -0.086798593 0.98000002 10080989
-0.015317426 -0.083394729 0.98000002 1993365
-0.013615455 -0.083394729 0.98000002 9550808
-0.011913547 -0.083394729 0.98000002 1993365
-0.058042902 -0.18095723 0.98300004 5330768
-0.055482157 -0.18095723 0.98300004 5595740
-0.052067861 -0.18095723 0.98300004 5992298
-0.049507186 -0.18095723 0.98300004 5400942
-0.047800001 -0.18095723 0.98300004 5136494
-0.0085357167 -0.1818108 0.98300004 3830922
-0.058611941 -0.17811194 0.98300004 1993365
-0.055766679 -0.178681 0.98300004 3239817
-0.052067861 -0.17925006 0.98300004 1993365
-0.049507186 -0.17925006 0.98300004 5667195
-0.047800001 -0.17925006 0.98300004 1993365
-0.0068285996 -0.17839646 0.98300004 1993365
-0.0051214173 -0.17839646 0.98300004 4881811
-0.05889646 -0.17498219 0.98300004 3042445
-0.0042678583 -0.17498219 0.98300004 4816022
-0.05889646 -0.17242149 0.98300004 6585467
-0.056335717 -0.17242149 0.98300004 6587519
-0.0017071173 -0.17242149 0.98300004 7704218
-0 -0.17242149 0.98300004 1993365
-0.066578619 -0.16900721 0.98300004 6380674
-0.063733362 -0.16957626 0.98300004 1993365
-0.061457139 -0.16986077 0.98300004 4552334
-0.059750017 -0.17071432 0.98300004 1993365
0.0011380999 -0.17014527 0.98300004 5933463
0.0034142998 -0.16900721 0.98300004 9149836
0.006828567 -0.16900721 0.98300004 12238254
-0.069992855 -0.16559292 0.98300004 1993365
-0.06743218 -0.16644648 0.98300004 4421513
-0.06487143 -0.16730005 0.98300004 1993365
0.0042678583 -0.16559292 0.98300004 1993365
0.006828567 -0.16644648 0.98300004 5670790
-0.069992855 -0.1630322 0.98300004 4618123
-0.068285733 -0.1630322 0.98300004 1993365
0.0045523783 -0.16331673 0.98300004 5737113
0.006828567 -0.1630322 0.98300004 1993365
-0.069992855 -0.16047147 0.98300004 7113359
-0.068285733 -0.16047147 0.98300004 6982037
0.0051214173 -0.16047147 0.98300004 8101025
0.006828567 -0.16047147 0.98300004 7444132
-0.069992855 -0.15705718 0.98300004 7178384
-0.068285733 -0.15791076 0.98300004 1993365
0.0051214173 -0.15791076 0.98300004 1993365
-0.069992855 -0.15449649 0.98300004 1993365
-0.068285733 -0.15449649 0.98300004 6915466
0.0051214173 -0.15535007 0.98300004 1993365
0.006828567 -0.15364291 0.98300004 1993365
-0.070846446 -0.15108219 0.98300004 4487309
-0.068285733 -0.15193574 0.98300004 6849409
0.006828567 -0.15193574 0.98300004 8034977
-0.07511434 -0.14852147 0.98300004 7310214
-0.073407151 -0.14852147 0.98300004 7046794
-0.071700037 -0.14852147 0.98300004 1993365
0.011950017 -0.14852147 0.98300004 1993365
0.013657134 -0.14852147 0.98300004 1993365
-0.07511434 -0.14596075 0.98300004 4618647
-0.073407151 -0.14596075 0.98300004 4421782
0.015364285 -0.14681433 0.98300004 9345705
-0.07511434 -0.14254647 0.98300004 1993365
-0.073407151 -0.14254647 0.98300004 4355220
-0.073407151 -0.13913219 0.98300004 7111818
-0.073407151 -0.1365715 0.98300004 7967372
-0.073407151 -0.13401076 0.98300004 4881557
-0.071700037 -0.13401076 0.98300004 1993365
0.022192851 -0.13315721 0.98300004 13683391
-0.07511434 -0.13145003 0.98300004 1993365
-0.073407151 -0.13059647 0.98300004 1993365
-0.071700037 -0.13059647 0.98300004 4749975
0.022192851 -0.13059647 0.98300004 12632514
-0.073407151 -0.12718217 0.98300004 8033943
-0.071130976 -0.12746671 0.98300004 5604258
-0.073407151 -0.12462147 0.98300004 7769494
-0.071700037 -0.12462147 0.98300004 7442077
-0.071130976 -0.12177624 0.98300004 1993365
-0.070561916 -0.11893098 0.98300004 3502485
-0.069992855 -0.11523218 0.98300004 3827607
-0.068285733 -0.11523218 0.98300004 3759758
0.013657134 -0.11437862 0.98300004 10665423
0.016217859 -0.11437862 0.98300004 1993365
-0.06743218 -0.11267145 0.98300004 5129856
0.011096442 -0.11267145 0.98300004 5342117
-0.067147657 -0.11039528 0.98300004 1993365
0.011096442 -0.11011075 0.98300004 1993365
-0.066578619 -0.10755005 0.98300004 1993365
-0.06487143 -0.10669647 0.98300004 5659290
-0.06487143 -0.10413577 0.98300004 1993365
-0.044385701 -0.09986788 0.98300004 6984880
-0.056335717 -0.097307153 0.98300004 1993365
-0.052067861 -0.097307153 0.98300004 4160678
-0.049507186 -0.097307153 0.98300004 6656943
-0.047800001 -0.097307153 0.98300004 1993365
-0.043532141 -0.097307153 0.98300004 4423331
-0.040117875 -0.097307153 0.98300004 1993365
-0.03755717 -0.097307153 0.98300004 7512244
0.0042678583 -0.097307153 0.98300004 1993365
0.006828567 -0.097307153 0.98300004 7642768
-0.054628599 -0.095600031 0.98300004 1993365
-0.052067861 -0.095600031 0.98300004 4162986
-0.049507186 -0.095600031 0.98300004 6789051
-0.046946444 -0.094746456 0.98300004 1993365
-0.043532141 -0.094746456 0.98300004 4357799
-0.040117875 -0.095600031 0.98300004 7115177
-0.03755717 -0.094746456 0.98300004 4224659
-0.03528095 -0.094461933 0.98300004 3765914
0.00085357495 -0.094746456 0.98300004 1993365
-0.046092886 -0.092185751 0.98300004 6983352
-0.042678583 -0.092185751 0.98300004 6717606
-0.034142867 -0.092185751 0.98300004 5330573
-0.031582162 -0.090478592 0.98300004 3760266
-0.0034142998 -0.090478592 0.98300004 1993365
-0.0017071173 -0.092185751 0.98300004 1993365
-0.031297632 -0.088202409 0.98300004 4544905
-0.028167859 -0.087064303 0.98300004 4218247
-0.02560715 -0.087064303 0.98300004 6909061
-0.023046441 -0.087917879 0.98300004 5934497
-0.019916674 -0.087633356 0.98300004 7118262
-0.0068285996 -0.087064303 0.98300004 10012643
-0.0051214173 -0.088771462 0.98300004 9553111
-0.028167859 -0.085357182 0.98300004 4417670
-0.017071433 -0.085357182 0.98300004 9747146
-0.010242835 -0.085357182 0.98300004 1993365
-0.0085357167 -0.085357182 0.98300004 10408668
-0.013657134 -0.081942908 0.98300004 1993365
-0.059871584 -0.18132541 0.98500007 5264202
-0.0068424931 -0.18132541 0.98500007 1993365
-0.005131837 -0.18132541 0.98500007 7113099
-0.061582174 -0.17875944 0.98500007 5854309
-0.059871584 -0.17961475 0.98500007 5920868
-0.0034212465 -0.17875944 0.98500007 1993365
-0.063292831 -0.17533821 0.98500007 1993365
-0.061582174 -0.17533821 0.98500007 6117496
-0.0017105906 -0.17533821 0.98500007 7837591
-0 -0.17533821 0.98500007 1993365
-0.066714078 -0.17106165 0.98500007 1993365
-0.064148128 -0.17191698 0.98500007 6248571
-0.061582174 -0.1727723 0.98500007 1993365
0.0017106233 -0.1727723 0.98500007 1993365
0.005131837 -0.16935107 0.98500007 10464413
-0.071845911 -0.16592984 0.98500007 1993365
-0.068424672 -0.16764042 0.98500007 1993365
0.008553084 -0.16592984 0.98500007 10793088
-0.073556505 -0.1633639 0.98500007 1993365
-0.071845911 -0.1633639 0.98500007 1993365
0.008553084 -0.1633639 0.98500007 1993365
-0.073556505 -0.15994267 0.98500007 7570827
-0.071275696 -0.15965758 0.98500007 3765137
0.0068424605 -0.15908737 0.98500007 1993365
-0.073556505 -0.15737674 0.98500007 7309197
-0.071845911 -0.15737674 0.98500007 7244427
0.0068424605 -0.15737674 0.98500007 8232353
-0.073556505 -0.15481082 0.98500007 7637388
-0.071845911 -0.15481082 0.98500007 1993365
0.0068424605 -0.15566614 0.98500007 1993365
-0.075837359 -0.15110448 0.98500007 1993365
-0.073556505 -0.15138957 0.98500007 1993365
0.008553084 -0.15224487 0.98500007 1993365
0.011119018 -0.15053427 0.98500007 5211037
-0.076977752 -0.14796834 0.98500007 7769224
0.015395544 -0.14882363 0.98500007 9410730
-0.076977752 -0.14540242 0.98500007 7638162
-0.076977752 -0.1428365 0.98500007 4485524
-0.076122455 -0.13941526 0.98500007 3174033
-0.076122455 -0.13599403 0.98500007 4550794
-0.076122455 -0.13342813 0.98500007 5790345
-0.076407552 -0.13057709 0.98500007 1993365
-0.075837359 -0.12772605 0.98500007 5404040
-0.075267158 -0.12487502 0.98500007 7309199
-0.073556505 -0.12316438 0.98500007 1993365
-0.073556505 -0.12145379 0.98500007 7308434
-0.073556505 -0.11888786 0.98500007 7574951
-0.071845911 -0.11803256 0.98500007 1993365
-0.071845911 -0.11546662 0.98500007 4486560
-0.070135258 -0.1120454 0.98500007 3498391
-0.068424672 -0.10947946 0.98500007 5460620
-0.067854479 -0.10662845 0.98500007 1993365
-0.051318504 -0.094083905 0.98500007 1993365
-0.049607914 -0.094083905 0.98500007 1993365
-0.0401995 -0.094083905 0.98500007 4356512
0.0017106233 -0.094083905 0.98500007 1993365
0.004276542 -0.095794544 0.98500007 1993365
-0.051318504 -0.092373312 0.98500007 1993365
-0.049607914 -0.092373312 0.98500007 1993365
-0.047327057 -0.091232888 0.98500007 1993365
-0.04390581 -0.091232888 0.98500007 5074840
-0.040484607 -0.091803096 0.98500007 6320546
-0.037633579 -0.091517992 0.98500007 5660823
-0.035352729 -0.091232888 0.98500007 3041171
-0.0017105906 -0.090662673 0.98500007 10010819
-0 -0.092373312 0.98500007 1993365
-0.034782536 -0.088381872 0.98500007 3039386
-0.032501746 -0.087241441 0.98500007 1993365
-0.022238003 -0.087241441 0.98500007 1993365
-0.004276542 -0.088096768 0.98500007 5543860
-0.031646416 -0.085530847 0.98500007 4682134
-0.025659252 -0.085530847 0.98500007 1993365
-0.023093332 -0.085530847 0.98500007 4752545
-0.019672085 -0.085530847 0.98500007 9350857
-0.0068424931 -0.085530847 0.98500007 1993365
-0.030791087 -0.083820209 0.98500007 1993365
-0.028225169 -0.082964912 0.98500007 3303570
-0.025659252 -0.082964912 0.98500007 6712200
-0.023378443 -0.083250016 0.98500007 1993365
-0.018816758 -0.083820209 0.98500007 1993365
-0.016250871 -0.082964912 0.98500007 1993365
-0.011119002 -0.082964912 0.98500007 6200505
-0.008553084 -0.083820209 0.98500007 1993365
-0.027940061 -0.079828791 0.98500007 3894423
-0.025659252 -0.079543687 0.98500007 8221328
-0.02394866 -0.079543687 0.98500007 5011609
-0.027369842 -0.076977752 0.98500007 8817804
-0.025659252 -0.076977752 0.98500007 9079447
-0.02394866 -0.076977752 0.98500007 9014946
-0.064343497 -0.18016182 0.98800004 5001306
-0.0034316666 -0.18187764 0.98800004 7900818
-0.0017158005 -0.18016182 0.98800004 1993365
-0 -0.18016182 0.98800004 1993365
-0.064343497 -0.17844597 0.98800004 1993365
-0.0017158005 -0.17844597 0.98800004 1993365
0.00085791666 -0.17844597 0.98800004 6720667
-0.065201402 -0.17587224 0.98800004 3891585
0.0017158333 -0.17587224 0.98800004 9807524
0.0042895665 -0.1750143 0.98800004 12302521
-0.067775168 -0.17244059 0.98800004 3957639
-0.065201402 -0.17329851 0.98800004 6052214
0.0042895665 -0.17244059 0.98800004 7247269
-0.072064742 -0.16815101 0.98800004 1993365
-0.070348874 -0.16900894 0.98800004 4089736
-0.068633065 -0.16986686 0.98800004 1993365
0.0085791331 -0.16900894 0.98800004 13882550
-0.075496405 -0.1664352 0.98800004 1993365
-0.073780537 -0.1664352 0.98800004 6387833
0.010294967 -0.1664352 0.98800004 12305546
-0.076068342 -0.1635755 0.98800009 3568015
0.010294967 -0.16386145 0.98800004 6061966
-0.076354302 -0.16042981 0.98800004 3174545
0.0085791331 -0.16042981 0.98800004 4423065
-0.076354302 -0.15699816 0.98800004 5799568
0.0085791331 -0.15699816 0.98800004 5014172
-0.076354302 -0.1544244 0.98800004 7375501
0.0085791331 -0.1544244 0.98800004 8232608
-0.078928009 -0.15185066 0.98800004 4684174
-0.0772122 -0.15270855 0.98800004 7310218
0.010294967 -0.15270855 0.98800004 8101796
0.0137266 -0.15099277 0.98800004 1993365
0.01630035 -0.15099277 0.98800004 10990007
-0.07949996 -0.14870498 0.98800009 1993365
-0.078928009 -0.14498734 0.98800004 1993365
-0.078928009 -0.14241362 0.98800004 6910101
-0.078928009 -0.13983989 0.98800004 4219021
-0.078928009 -0.13640822 0.98800004 1993365
-0.078928009 -0.13297659 0.98800004 3825799
-0.078928009 -0.13040285 0.98800004 6644602
-0.078928009 -0.12782907 0.98800004 1993365
-0.0772122 -0.12697116 0.98800004 1993365
-0.076640271 -0.12411146 0.98800009 3632529
-0.075496405 -0.12096578 0.98800004 4619407
-0.073780537 -0.11581831 0.98800004 8232880
0.0137266 -0.11238665 0.98800004 6460855
-0.070348874 -0.1098129 0.98800004 5463457
0.0137266 -0.1098129 0.98800004 11915481
-0.067775168 -0.10466546 0.98800004 1993365
-0.064343497 -0.1029496 0.98800004 5080498
-0.060911834 -0.10037585 0.98800004 1993365
-0.058338135 -0.097802103 0.98800004 8895180
-0.056622267 -0.096086301 0.98800004 1993365
-0.053190604 -0.094370447 0.98800004 1993365
0.0051474669 -0.094370447 0.98800004 12243695
-0.051474802 -0.090938799 0.98800004 1993365
-0.049759001 -0.090938799 0.98800004 1993365
-0.039464004 -0.090938799 0.98800004 1993365
0.0011438889 -0.091510758 0.98800009 7771828
-0.048043136 -0.089223005 0.98800004 1993365
-0.046327334 -0.089223005 0.98800004 5858728
-0.043753568 -0.089223005 0.98800004 4089239
-0.0034316666 -0.087507151 0.98800004 1993365
-0.0017158005 -0.089223005 0.98800004 1993365
-0 -0.089223005 0.98800004 1993365
-0.034316532 -0.085791357 0.98800004 7838392
-0.032600731 -0.084075503 0.98800004 1993365
-0.020589935 -0.084075503 0.98800004 1993365
-0.0051474669 -0.085791357 0.98800004 1993365
-0.0317428 -0.082359701 0.98800004 1993365
-0.022305734 -0.082359701 0.98800004 1993365
-0.019732002 -0.082359701 0.98800004 4949423
-0.017158266 -0.082359701 0.98800004 8431820
-0.010294934 -0.082359701 0.98800004 1993365
-0.022305734 -0.079785958 0.98800004 1993365
-0.020589935 -0.078928053 0.98800004 1993365
-0.024021599 -0.075496346 0.98800004 1993365
-0.022305734 -0.076354273 0.98800004 5538192
-0.067120455 -0.18070886 0.99100006 4214104
-0.0017210104 -0.18242991 0.99100006 8754318
-0.080028191 -0.17726678 0.99100006 9407118
-0.067120455 -0.17812729 0.99100006 5527140
-0.06798096 -0.17554572 0.99100006 5593968
-0.070562482 -0.17210366 0.99100006 5857149
-0.068841472 -0.17382471 0.99100006 1993365
-0.07658615 -0.16952211 0.99100006 1993365
-0.073430896 -0.16980895 0.99100006 4680325
-0.079167657 -0.16694057 0.99100006 5594475
-0.077446654 -0.16608004 0.99100006 3960965
-0.079167657 -0.16177744 0.99100006 5861496
0.010326227 -0.16091694 0.99100006 1993365
-0.079741351 -0.15718804 0.99100006 3568785
0.010326227 -0.15747488 0.99100006 4620957
-0.080315039 -0.15431963 0.99100006 5799567
0.010326227 -0.15489331 0.99100006 7970977
0.012907775 -0.15317225 0.99100006 5277083
0.015489324 -0.15317225 0.99100006 9151924
-0.08260975 -0.15145124 0.99100006 6520456
-0.080888733 -0.15145124 0.99100006 7505287
-0.08433082 -0.14973018 0.99100006 1993365
-0.08260975 -0.14886966 0.99100006 4224397
-0.080888733 -0.14800917 0.99100006 1993365
-0.08260975 -0.14542761 0.99100006 6521735
-0.080888733 -0.14542761 0.99100006 4619407
-0.08260975 -0.14198554 0.99100006 5991040
-0.080888733 -0.14198554 0.99100006 4417680
-0.080888733 -0.13940397 0.99100006 6312062
-0.080888733 -0.13682243 0.99100006 1993365
-0.080888733 -0.13338035 0.99100006 4088452
-0.080888733 -0.12993827 0.99100006 4285061
-0.080888733 -0.12735669 0.99100006 6379644
-0.079741351 -0.125062 0.99100006 1993365
-0.079167657 -0.12133309 0.99100006 1993365
-0.077446654 -0.12133309 0.99100006 4619410
-0.076299317 -0.11817786 0.99100006 4029598
-0.072283559 -0.11272791 0.99100006 1993365
0.015489324 -0.11272791 0.99100006 7316670
-0.070562482 -0.10842533 0.99100006 5988516
0.015489324 -0.11014634 0.99100006 13031905
-0.070562482 -0.10670427 0.99100006 6524857
-0.06798096 -0.1032622 0.99100006 1993365
-0.064538874 -0.10154114 0.99100006 1993365
-0.061957296 -0.099820137 0.99100006 1993365
-0.060236286 -0.098099075 0.99100006 1993365
-0.058515273 -0.096378066 0.99100006 1993365
-0.055073187 -0.094657004 0.99100006 1993365
0.0034420865 -0.094657004 0.99100006 1993365
-0.05335211 -0.092935994 0.99100006 8892609
0.004302592 -0.09207546 0.99100006 4358819
0.0068841404 -0.092075467 0.99100006 10999520
-0.0516311 -0.088633388 0.99100006 1993365
-0.049910091 -0.089493923 0.99100006 1993365
-0.046468005 -0.087772861 0.99100006 1993365
-0.043886423 -0.087772861 0.99100006 1993365
-0.040444367 -0.089493923 0.99100006 5661348
-0.037002284 -0.088633388 0.99100006 1993365
-0.0017210104 -0.087772861 0.99100006 1993365
0.0011473622 -0.088346556 0.99100006 6595265
0.004302592 -0.089493923 0.99100006 1993365
-0.034420736 -0.08433079 0.99100006 1993365
-0.006884173 -0.08433079 0.99100006 1993365
-0.0034420865 -0.086051852 0.99100006 1993365
-0.008605184 -0.08260978 0.99100006 11391445
-0.019505071 -0.080315053 0.99100006 1993365
-0.015489357 -0.080888718 0.99100006 1993365
-0.013768281 -0.080888718 0.99100006 8428995
-0.077681102 -0.17780341 0.99400002 8290427
-0.069625281 -0.17837882 0.99400008 4284535
-0.081133612 -0.17521404 0.99400002 6127770
-0.079407319 -0.17521404 0.99400002 5340314
-0.077105694 -0.17492634 0.99400008 1993365
-0.073077783 -0.17492634 0.99400008 1993365
-0.07077609 -0.17521404 0.99400002 3761544
-0.081133612 -0.17262466 0.99400002 10529203
-0.079407319 -0.17262466 0.99400002 8096149
-0.076817989 -0.17262466 0.99400002 5796227
-0.07336548 -0.17262466 0.99400002 5990527
-0.084586114 -0.16917215 0.99400002 14935502
-0.081996724 -0.1700353 0.99400002 6526386
-0.079407319 -0.1700353 0.99400002 6646147
-0.088038556 -0.16658281 0.99400002 8695997
-0.085449234 -0.16658281 0.99400002 4556456
-0.081996724 -0.16658281 0.99400002 5527680
-0.079407319 -0.16571967 0.99400002 5009006
0.01208374 -0.16571967 0.99400002 12498344
-0.088901699 -0.16399346 0.99400002 15463390
-0.085449226 -0.16399346 0.99400002 9148086
-0.081996724 -0.16313033 0.99400002 4281460
-0.079407319 -0.16399346 0.99400002 5402481
0.01208374 -0.16313033 0.99400002 6127511
-0.081996724 -0.16054097 0.99400002 5593463
-0.079407319 -0.16054097 0.99400002 1993365
0.01208374 -0.16054097 0.99400002 7307940
-0.084586114 -0.15708847 0.99400002 1993365
-0.082284428 -0.15823929 0.99400008 4415111
0.01208374 -0.15795158 0.99400002 4554906
-0.084586114 -0.15449907 0.99400002 3370652
-0.082859829 -0.15449907 0.99400002 6320010
0.012946851 -0.1553622 0.99400002 1993365
0.017262468 -0.15363593 0.99400002 12305096
-0.085449226 -0.15104659 0.99400002 3760027
-0.088038556 -0.14845721 0.99400002 10666447
-0.085449226 -0.14845721 0.99400002 6910118
-0.088038556 -0.14586784 0.99400002 6460847
-0.085449226 -0.14586784 0.99400002 1993365
-0.091491066 -0.14155224 0.99400002 1993365
-0.088613987 -0.14212765 0.99400008 5344681
-0.085449226 -0.14241534 0.99400002 4485784
-0.094080463 -0.13809976 0.99400002 8627899
-0.091491066 -0.13809976 0.99400002 15525861
-0.088613987 -0.13867518 0.99400008 5542573
-0.085449234 -0.13896286 0.99400002 6127282
-0.082859829 -0.13896286 0.99400002 5461365
-0.094080463 -0.13637348 0.99400002 15263969
-0.091491066 -0.13637348 0.99400002 1993365
-0.088901699 -0.13637348 0.99400002 7644853
-0.085449226 -0.13637348 0.99400002 6848683
-0.082859829 -0.13637348 0.99400002 5460079
-0.085161529 -0.13407186 0.99400008 1993365
-0.082859829 -0.13378413 0.99400002 5656685
-0.084586114 -0.13033164 0.99400002 1993365
-0.082859829 -0.13033164 0.99400002 3891075
-0.084586114 -0.12774223 0.99400002 5330842
-0.082859829 -0.12687913 0.99400002 5855617
-0.081133612 -0.12428975 0.99400002 5528208
-0.081133612 -0.12170039 0.99400002 1993365
-0.079407319 -0.1182479 0.99400002 8296109
-0.077681102 -0.11738476 0.99400002 1993365
-0.076817989 -0.11565854 0.99400002 5408417
-0.074228592 -0.11306916 0.99400002 8101553
-0.07336548 -0.10961667 0.99400002 4750758
-0.07077609 -0.10530107 0.99400002 1993365
-0.063871145 -0.10012231 0.99400002 1993365
-0.061281744 -0.097532935 0.99400002 1993365
-0.056390725 -0.093792751 0.99400008 1993365
-0.05351362 -0.091491066 0.99400002 1993365
-0.049198039 -0.088038571 0.99400002 1993365
-0.041429948 -0.088038571 0.99400002 6710948
-0.037977442 -0.088038571 0.99400002 6780087
0.0034525066 -0.088038571 0.99400002 1993365
-0.051787402 -0.085449219 0.99400002 5212079
-0.049198039 -0.085449219 0.99400002 3767459
-0.046608675 -0.085449219 0.99400002 4289701
-0.044019278 -0.086312354 0.99400002 1993365
-0.041429948 -0.086312354 0.99400002 7572659
-0.036251154 -0.086312354 0.99400002 1993365
-0.0043156166 -0.084586076 0.99400002 1993365
-0.0017262204 -0.086312354 0.99400002 11063011
0.00086312665 -0.086312354 0.99400002 6725305
0.0034525066 -0.086312354 0.99400002 12047067
-0.034524936 -0.082859859 0.99400002 1993365
-0.017262468 -0.081133597 0.99400002 8432074
-0.0069050132 -0.082859859 0.99400002 1993365
-0.0051787267 -0.082859859 0.99400002 1993365
-0.016399357 -0.079407372 0.99400002 5212844
-0.013809961 -0.079407372 0.99400002 1993365
-0.01985183 -0.076817967 0.99400002 5343662
-0.016399357 -0.076817967 0.99400002 5211555
-0.070989698 -0.18007149 0.99700004 5528171
-0.076184124 -0.17834005 0.99700004 7437166
-0.072721198 -0.17834005 0.99700004 5925492
-0.076184124 -0.17660856 0.99700004 1993365
-0.074452624 -0.17660856 0.99700004 1993365
-0.090035766 -0.16275692 0.99700004 15396327
-0.088304266 -0.16275692 0.99700004 1993365
-0.085707121 -0.16275692 0.99700004 1993365
0.013851641 -0.16362266 0.99700004 11776936
-0.085418552 -0.15987118 0.9970001 2840469
0.013851641 -0.16015975 0.99700004 5996441
-0.086572833 -0.15756258 0.99700004 1993365
0.013851641 -0.15756258 0.99700004 8690079
-0.088304266 -0.15409963 0.99700004 1993365
-0.086572833 -0.15496537 0.99700004 1993365
-0.088304266 -0.15150246 0.99700004 1993365
-0.086572833 -0.1523682 0.99700004 8942267
-0.090035766 -0.14717381 0.99700004 1993365
-0.090035766 -0.14544238 0.99700004 1993365
-0.090901479 -0.1437109 0.99700004 8826301
-0.093498692 -0.14024797 0.99700004 15394015
-0.090901479 -0.14024797 0.99700004 14806250
-0.094364405 -0.13505363 0.99700004 8562618
-0.090901479 -0.13505363 0.99700004 8693692
