# .PCD v0.7 - Point Cloud Data file format
VERSION 0.7
FIELDS x y z rgba
SIZE 4 4 4 4
TYPE F F F U
COUNT 1 1 1 1
WIDTH 518
HEIGHT 1
VIEWPOINT 0 0 0 1 0 0 0
POINTS 518
DATA ascii
-0.049320184 -0.15397519 1.039 1427893
-0.046012104 -0.15427592 1.039 6791261
-0.043305546 -0.15427592 1.039 12285185
-0.037290849 -0.15457666 1.039 8819264
-0.048718724 -0.15156932 1.039 12415745
-0.046012104 -0.15156932 1.039 12350210
-0.043305546 -0.15156932 1.039 12415494
-0.049620908 -0.14976491 1.039 1427893
-0.045711379 -0.14916345 1.039 8818750
-0.043305546 -0.14886272 1.039 12613385
-0.037892304 -0.14976491 1.039 12810251
-0.04510992 -0.14615612 1.039 1427893
-0.043305546 -0.14525393 1.039 12941569
-0.041501112 -0.14615612 1.039 1427893
-0.048859395 -0.17010301 1.0420001 11169823
-0.046144955 -0.16919823 1.0420001 1427893
-0.043430589 -0.16919823 1.0420001 1427893
-0.040716149 -0.16919823 1.0420001 1427893
-0.037096925 -0.16919823 1.0420001 9801520
-0.048859395 -0.16648382 1.0420001 1427893
-0.046144955 -0.16648382 1.0420001 12025107
-0.043430589 -0.16648382 1.0420001 12156422
-0.040716149 -0.16648382 1.0420001 12353029
-0.037096925 -0.16648382 1.0420001 12483337
-0.049764186 -0.16376942 1.0420001 6726500
-0.046144955 -0.16376942 1.0420001 6726252
-0.043430589 -0.16376942 1.0420001 12221448
-0.040716149 -0.16376942 1.0420001 1427893
-0.037096925 -0.16376941 1.0420001 6922848
-0.034382556 -0.16467424 1.0420001 12680972
-0.049764182 -0.16015019 1.0420001 1427893
-0.046144955 -0.16015019 1.0420001 4109705
-0.043430589 -0.16015019 1.0420001 12286723
-0.040716149 -0.16015019 1.0420001 6857308
-0.037096925 -0.16015019 1.0420001 9670195
-0.034382556 -0.1592454 1.0420001 12483335
-0.031969719 -0.16045178 1.0420001 8820034
-0.049764186 -0.15743577 1.0420001 12090380
-0.046144955 -0.15743577 1.0420001 12221455
-0.043430589 -0.15743577 1.0420001 12286721
-0.040716149 -0.15743577 1.0420001 6857307
-0.037096925 -0.15743577 1.0420001 12417793
-0.034382556 -0.15743577 1.0420001 12548868
-0.031668119 -0.15743577 1.0420001 12483335
-0.028953679 -0.15743577 1.0420001 12548869
-0.054288205 -0.15381655 1.0420001 11958534
-0.052478623 -0.15472136 1.0420001 6725982
-0.050668973 -0.15562618 1.0420001 1427893
-0.040716149 -0.15472136 1.0420001 1427893
-0.036192134 -0.15381655 1.0420001 1427893
-0.034382556 -0.15472136 1.0420001 12679429
-0.031668119 -0.15472136 1.0420001 1427893
-0.028953679 -0.15472136 1.0420001 12679170
-0.054288205 -0.15110216 1.0420001 1427893
-0.052478623 -0.15110216 1.0420001 6791259
-0.050668973 -0.15200698 1.0420001 12285441
-0.040716149 -0.15110216 1.0420001 6987359
-0.036795329 -0.15140377 1.0420001 5156219
-0.034382556 -0.15110216 1.0420001 12941570
-0.031668119 -0.15110216 1.0420001 1427893
-0.028048892 -0.15110216 1.0420001 9997872
-0.025334522 -0.15019734 1.0420001 12941828
-0.052478623 -0.14838776 1.0420001 12350209
-0.049764186 -0.14838776 1.0420001 12481025
-0.047049746 -0.14838776 1.0420001 12547329
-0.040716149 -0.14838776 1.0420001 1427893
-0.037096925 -0.14838776 1.0420001 1427893
-0.034382556 -0.14838776 1.0420001 13138179
-0.031668119 -0.14838776 1.0420001 1427893
-0.028048892 -0.14838776 1.0420001 7250267
-0.025334522 -0.14838776 1.0420001 13072898
-0.054288205 -0.14657813 1.0420001 1427893
-0.052478623 -0.14567335 1.0420001 6921563
-0.049764186 -0.14567335 1.0420001 1427893
-0.046446554 -0.14537176 1.0420001 8949821
-0.040414557 -0.14537176 1.0420001 1427893
-0.037096925 -0.14567335 1.0420001 10259504
-0.034382556 -0.14567335 1.0420001 7381340
-0.031668119 -0.14567335 1.0420001 7381596
-0.028048892 -0.14567335 1.0420001 10392111
-0.025334522 -0.14657813 1.0420001 1427893
-0.050065782 -0.14235574 1.0420001 1427893
-0.046144955 -0.14205414 1.0420001 10259758
-0.043430589 -0.14205414 1.0420001 7381851
-0.040716149 -0.14205414 1.0420001 7447899
-0.037096925 -0.14205414 1.0420001 10588976
-0.034382556 -0.14205414 1.0420001 13729799
-0.031668119 -0.14205414 1.0420001 1427893
-0.028350487 -0.14235574 1.0420001 13860619
-0.043430589 -0.13933972 1.0420001 13993217
-0.040716149 -0.13933972 1.0420001 14059010
-0.037096925 -0.13933972 1.0420001 13992464
-0.034382556 -0.13933972 1.0420001 1427893
-0.031668119 -0.13933972 1.0420001 13992466
-0.036192134 -0.13753013 1.0420001 1427893
-0.040833376 -0.17422239 1.0450001 10315290
-0.037203729 -0.17422239 1.0450001 6069093
-0.061703794 -0.1724076 1.0450001 11576735
-0.059888937 -0.1724076 1.0450001 11049353
-0.049907461 -0.1724076 1.0450001 8740925
-0.046277814 -0.1724076 1.0450001 9658926
-0.043555629 -0.1724076 1.0450001 1427893
-0.040833376 -0.1724076 1.0450001 1427893
-0.037203729 -0.1724076 1.0450001 6529377
-0.034481548 -0.1724076 1.0450001 12026633
-0.032666687 -0.1724076 1.0450001 1427893
-0.050209925 -0.1693829 1.0450001 1427893
-0.034481548 -0.16968536 1.0450001 12811014
-0.032061756 -0.1693829 1.0450001 1427893
-0.050814856 -0.16696313 1.0450001 1427893
-0.034481548 -0.16696313 1.0450001 12680457
-0.031759292 -0.16605572 1.0450001 4241033
-0.028432112 -0.16575328 1.0450001 9082697
-0.052629713 -0.16333351 1.0450001 12024858
-0.034481548 -0.16333351 1.0450001 12680203
-0.031759292 -0.16333351 1.0450001 1427893
-0.028129645 -0.16333351 1.0450001 7054175
-0.052629713 -0.16061127 1.0450001 6660450
-0.034481548 -0.16151866 1.0450001 12549131
-0.030851897 -0.15970388 1.0450001 1427893
-0.028129645 -0.16061127 1.0450001 9801781
-0.025407461 -0.16061127 1.0450001 6988387
-0.054444503 -0.15698163 1.0450001 6660448
-0.052629713 -0.15788902 1.0450001 1427893
-0.027222252 -0.15698163 1.0450001 6988129
-0.025407461 -0.15698163 1.0450001 12614172
-0.056259293 -0.15425941 1.0450001 11827459
-0.027222252 -0.15425941 1.0450001 1427893
-0.025407461 -0.15425941 1.0450001 12679723
-0.023592602 -0.15425941 1.0450001 12679190
-0.056259293 -0.15153719 1.0450001 1427893
-0.025407461 -0.15244462 1.0450001 12745239
-0.022987675 -0.15123473 1.0450001 1427893
-0.055654362 -0.14821003 1.0450001 8556605
-0.022685209 -0.14790756 1.0450001 1427893
-0.055351898 -0.14518535 1.0450001 6856028
-0.025407461 -0.14518535 1.0450001 13598722
-0.022685207 -0.14518535 1.0450001 7513179
-0.054444503 -0.14246312 1.0450001 1427893
-0.052629713 -0.14246312 1.0450001 12743171
-0.049000066 -0.14155573 1.0450001 1427893
-0.027222252 -0.14155573 1.0450001 1427893
-0.025407461 -0.14246312 1.0450001 13926403
-0.022685207 -0.14337052 1.0450001 7578460
-0.052629713 -0.13974088 1.0450001 1427893
-0.049907461 -0.13974088 1.0450001 13268481
-0.046277814 -0.13974088 1.0450001 13729537
-0.028129645 -0.13974088 1.0450001 14254856
-0.025407461 -0.13974088 1.0450001 1427893
-0.050050735 -0.17472255 1.0480001 6567991
-0.046410665 -0.17472255 1.0480001 7615002
-0.043680672 -0.17472255 1.0480001 9131022
-0.034580532 -0.17472255 1.0480001 11234826
-0.031850465 -0.17472255 1.0480001 11036936
-0.030940467 -0.17199253 1.0480001 1427893
-0.028513733 -0.1716892 1.0480001 5222791
-0.0282104 -0.1692625 1.0480001 7185783
-0.025480401 -0.1692625 1.0480001 13009922
-0.052780803 -0.16653246 1.0480001 11958816
-0.027300401 -0.16744246 1.0480001 13206033
-0.025480401 -0.16653246 1.0480001 13074946
-0.022750333 -0.16653246 1.0480001 1427893
-0.055510804 -0.1638024 1.0480001 1427893
-0.025480401 -0.1638024 1.0480001 1427893
-0.023660332 -0.1638024 1.0480001 12877318
-0.054600801 -0.16107236 1.0480001 1427893
-0.023053667 -0.1613757 1.0480001 1427893
-0.058240872 -0.1574323 1.0480001 6660460
-0.056420803 -0.1574323 1.0480001 1427893
-0.022750333 -0.1574323 1.0480001 6988381
-0.058240872 -0.15470225 1.0480001 11892993
-0.021840336 -0.15470225 1.0480001 12745217
-0.058240872 -0.15197223 1.0480001 6594907
-0.021840336 -0.15288225 1.0480001 1427893
-0.018806934 -0.15166889 1.0480001 1427893
-0.016380269 -0.15106221 1.0480001 13072902
-0.058240872 -0.14833218 1.0480001 12022786
-0.019110266 -0.14833218 1.0480001 7315803
-0.016380269 -0.14924221 1.0480001 13270275
-0.058240872 -0.14560215 1.0480001 12087298
-0.019110266 -0.14560215 1.0480001 13664769
-0.058240872 -0.14378211 1.0480001 12218115
-0.056420803 -0.14287211 1.0480001 6921564
-0.022750333 -0.14196211 1.0480001 1427893
-0.020020267 -0.14378211 1.0480001 1427893
-0.058240872 -0.14014205 1.0480001 1427893
-0.055510804 -0.14014205 1.0480001 1427893
-0.052780803 -0.13832206 1.0480001 1427893
-0.050050735 -0.13832206 1.0480001 1427893
-0.04550067 -0.13832206 1.0480001 1427893
-0.041860603 -0.13832206 1.0480001 1427893
-0.038220532 -0.13832206 1.0480001 1427893
-0.034580532 -0.13832206 1.0480001 14058507
-0.032760464 -0.13832206 1.0480001 1427893
-0.027300401 -0.13832206 1.0480001 1427893
-0.025480401 -0.13832206 1.0480001 14780673
-0.023660332 -0.14014205 1.0480001 1427893
-0.046410665 -0.13650201 1.0480001 1427893
-0.043680672 -0.13650201 1.0480001 14321166
-0.036400534 -0.13650201 1.0480001 1427893
-0.027300401 -0.13650201 1.0480001 1427893
-0.028318074 -0.17538942 1.052 10838033
-0.025577655 -0.17538942 1.052 10575122
-0.022837166 -0.17538942 1.052 10313247
-0.05846316 -0.172649 1.052 10525310
-0.052982256 -0.172649 1.052 9593414
-0.027404601 -0.1735625 1.052 1427893
-0.025577655 -0.172649 1.052 6595170
-0.022837166 -0.172649 1.052 1427893
-0.020096678 -0.172649 1.052 7186541
-0.013397809 -0.17234449 1.052 5491382
-0.010961813 -0.1735625 1.052 1427893
-0.067598023 -0.16808155 1.052 15855078
-0.064857543 -0.16899505 1.052 8312779
-0.061508119 -0.16869056 1.052 9951951
-0.05846316 -0.16899505 1.052 12026230
-0.055722676 -0.16899505 1.052 1427893
-0.052982256 -0.16990855 1.052 11169821
-0.022837166 -0.16990855 1.052 7251293
-0.019183207 -0.16899505 1.052 7382375
-0.016442789 -0.16808155 1.052 1427893
-0.013397809 -0.16869056 1.052 1427893
-0.05846316 -0.16625459 1.052 11890945
-0.055722676 -0.16625459 1.052 11695650
-0.019183207 -0.16625459 1.052 7316578
-0.016442789 -0.16625459 1.052 12945174
-0.0137023 -0.16625459 1.052 7317885
-0.065771013 -0.16442761 1.052 1427893
-0.060290106 -0.16260061 1.052 1427893
-0.05846316 -0.16351411 1.052 6396515
-0.056636147 -0.16260061 1.052 1427893
-0.021923693 -0.16442761 1.052 12943110
-0.019183207 -0.16351411 1.052 7119715
-0.016442789 -0.16351411 1.052 1427893
-0.014615773 -0.16442761 1.052 1427893
-0.060290106 -0.16077366 1.052 11630120
-0.05846316 -0.16077366 1.052 11827746
-0.056636147 -0.16077366 1.052 12024090
-0.021923693 -0.16077366 1.052 1427893
-0.019183207 -0.16077366 1.052 1427893
-0.016442789 -0.16077366 1.052 12680978
-0.065162033 -0.1577287 1.052 1427893
-0.061203614 -0.15803319 1.052 6528094
-0.019183207 -0.15803319 1.052 7053916
-0.016442789 -0.15803319 1.052 1427893
-0.067598023 -0.15529272 1.052 15002833
-0.064857543 -0.15529272 1.052 1427893
-0.061203614 -0.15437925 1.052 9080110
-0.019487698 -0.15468374 1.052 9016381
-0.016442789 -0.15437925 1.052 7119199
-0.061203614 -0.15163878 1.052 11695619
-0.014615773 -0.15163878 1.052 13138442
-0.061203614 -0.14889833 1.052 6396763
-0.016442789 -0.14798483 1.052 13467905
-0.014615773 -0.14889833 1.052 1427893
-0.061203614 -0.14524439 1.052 9011502
-0.018269734 -0.14433089 1.052 1427893
-0.016442789 -0.14524439 1.052 1427893
-0.014615773 -0.14615789 1.052 13534209
-0.060290106 -0.14250395 1.052 12152833
-0.05846316 -0.14250395 1.052 12285186
-0.019183207 -0.14250395 1.052 7841115
-0.060290106 -0.14067695 1.052 1427893
-0.05846316 -0.13885 1.052 12350471
-0.055722676 -0.13885 1.052 1427893
-0.047501281 -0.13885 1.052 1427893
-0.043847386 -0.13885 1.052 14190087
-0.040193431 -0.13885 1.052 1427893
-0.031058561 -0.13885 1.052 1427893
-0.029231546 -0.13885 1.052 14451462
-0.022532677 -0.13945898 1.052 5747833
-0.054809202 -0.137023 1.052 13073409
-0.052068748 -0.137023 1.052 7381851
-0.049328294 -0.1361095 1.052 13926417
-0.04658781 -0.135196 1.052 1427893
-0.042629384 -0.13580501 1.052 5747840
-0.040193431 -0.1361095 1.052 1427893
-0.037757434 -0.13580501 1.052 14780951
-0.034712523 -0.1361095 1.052 8235628
-0.032276526 -0.13641401 1.052 5944711
-0.028318074 -0.1361095 1.052 8104795
-0.025577655 -0.1361095 1.052 8302191
-0.022837166 -0.137023 1.052 8236637
-0.037452944 -0.13336906 1.052 8435049
-0.055881582 -0.17405744 1.0550001 8812652
-0.018932551 -0.17527889 1.0550001 7378292
-0.016489679 -0.17497352 1.0550001 11902846
-0.014657454 -0.17497352 1.0550001 12559774
-0.065042496 -0.17222522 1.0550001 12762056
-0.061378151 -0.17222522 1.0550001 6864313
-0.055881582 -0.17222522 1.0550001 1427893
-0.018321833 -0.17222522 1.0550001 12945735
-0.016489679 -0.17222522 1.0550001 12949074
-0.010993072 -0.17222522 1.0550001 14801618
-0.060462039 -0.17039308 1.0550001 1427893
-0.016489679 -0.17039308 1.0550001 1427893
-0.014657454 -0.17039308 1.0550001 1427893
-0.010076994 -0.16947697 1.0550001 8113336
-0.067790799 -0.16672871 1.0550001 16052463
-0.065042496 -0.16672871 1.0550001 8512460
-0.061378151 -0.16672871 1.0550001 13085600
-0.010993072 -0.16672871 1.0550001 14396538
-0.069622949 -0.16398039 1.0550001 16052720
-0.067790799 -0.16398039 1.0550001 8838866
-0.064737141 -0.16367504 1.0550001 1427893
-0.061683521 -0.16428576 1.0550001 8957578
-0.013436018 -0.16367504 1.0550001 1427893
-0.010993072 -0.1648965 1.0550001 13929789
-0.073287331 -0.15939994 1.0550001 15921140
-0.070539065 -0.16031605 1.0550001 15987444
-0.067790799 -0.16031605 1.0550001 9036749
-0.064737141 -0.1606214 1.0550001 9554095
-0.062294263 -0.16123214 1.0550001 12087855
-0.014046735 -0.1606214 1.0550001 5222529
-0.073287331 -0.15756777 1.0550001 15921393
-0.070539065 -0.15756777 1.0550001 8707540
-0.067790799 -0.15756777 1.0550001 15791573
-0.013741376 -0.15756777 1.0550001 1427893
-0.073287331 -0.15481949 1.0550001 15986927
-0.070539065 -0.15481949 1.0550001 1427893
-0.067790799 -0.15390342 1.0550001 14279378
-0.065042496 -0.15390342 1.0550001 1427893
-0.013741376 -0.15481949 1.0550001 4306316
-0.073287331 -0.15115513 1.0550001 16052462
-0.070539065 -0.15115513 1.0550001 8511445
-0.067790799 -0.15115513 1.0550001 7721412
-0.065042496 -0.15115513 1.0550001 6595740
-0.012825298 -0.15115513 1.0550001 7316071
-0.069622949 -0.14840683 1.0550001 1427893
-0.067790799 -0.14840683 1.0550001 13947600
-0.065042496 -0.14840683 1.0550001 6133125
-0.012825298 -0.14840683 1.0550001 1427893
-0.070539065 -0.14565858 1.0550001 1427893
-0.067790799 -0.14565858 1.0550001 14082509
-0.065042496 -0.14565858 1.0550001 1427893
-0.014657454 -0.14474249 1.0550001 1427893
-0.062294263 -0.14199422 1.0550001 11362817
-0.019237909 -0.14107811 1.0550001 7973467
-0.016489679 -0.14199422 1.0550001 14190081
-0.065042496 -0.13924596 1.0550001 5937552
-0.061378151 -0.13924596 1.0550001 6328923
-0.019237909 -0.13924596 1.0550001 8170077
-0.065042496 -0.13741376 1.0550001 7523275
-0.061378151 -0.13741376 1.0550001 6528603
-0.058629882 -0.13741376 1.0550001 12481550
-0.056186941 -0.13619229 1.0550001 1427893
-0.05221723 -0.13558155 1.0550001 7513435
-0.031147132 -0.13558155 1.0550001 1427893
-0.029314907 -0.13558155 1.0550001 15175215
-0.022902291 -0.13558155 1.0550001 1427893
-0.020153988 -0.13741376 1.0550001 14980108
-0.055881582 -0.1337494 1.0550001 7381851
-0.05221723 -0.1337494 1.0550001 7578971
-0.049468964 -0.1337494 1.0550001 14188309
-0.046720661 -0.1337494 1.0550001 7841391
-0.043056317 -0.1337494 1.0550001 1427893
-0.040308051 -0.1337494 1.0550001 1427893
-0.034811515 -0.1337494 1.0550001 15704390
-0.032063209 -0.1337494 1.0550001 1427893
-0.02839883 -0.1337494 1.0550001 8566406
-0.025650596 -0.1337494 1.0550001 15704146
-0.054965504 -0.13191718 1.0550001 1427893
-0.051911861 -0.13130647 1.0550001 5550457
-0.049468964 -0.1310011 1.0550001 1427893
-0.046720661 -0.13191718 1.0550001 1427893
-0.043056317 -0.13191718 1.0550001 8301413
-0.040308051 -0.13191718 1.0550001 15965702
-0.037559744 -0.1310011 1.0550001 1427893
-0.034811515 -0.1310011 1.0550001 16294972
-0.032368571 -0.13130647 1.0550001 1427893
-0.028093472 -0.13130647 1.0550001 6405784
-0.025650596 -0.13191718 1.0550001 1427893
-0.0091869673 -0.16628411 1.0580001 8508343
-0.01010565 -0.163528 1.0580001 13932583
-0.012861768 -0.15985321 1.0580001 1427893
-0.011024333 -0.15709713 1.0580001 13006630
-0.011024333 -0.15434106 1.0580001 1427893
-0.011024333 -0.15158495 1.0580001 1427893
-0.01010565 -0.14882885 1.0580001 7316579
-0.012861768 -0.14607278 1.0580001 1427893
-0.011024333 -0.14699149 1.0580001 1427893
-0.069820933 -0.1433167 1.0580001 15201014
-0.067064852 -0.1433167 1.0580001 13350597
-0.01378045 -0.1433167 1.0580001 1427893
-0.016536569 -0.13964193 1.0580001 1427893
-0.06430877 -0.13596709 1.0580001 11970464
-0.061552688 -0.13596709 1.0580001 1427893
-0.058796603 -0.13596709 1.0580001 12678407
-0.018986389 -0.13657956 1.0580001 5945218
-0.06430877 -0.13412972 1.0580001 13226703
-0.061246447 -0.13351725 1.0580001 1427893
-0.058796603 -0.13321102 1.0580001 12478230
-0.056959167 -0.1322923 1.0580001 1427893
-0.022967417 -0.13412972 1.0580001 8368491
-0.018373935 -0.13412972 1.0580001 1427893
-0.058796603 -0.13045493 1.0580001 13011030
-0.056040484 -0.13045493 1.0580001 7314032
-0.053284436 -0.13045493 1.0580001 13862402
-0.04685352 -0.13045493 1.0580001 1427893
-0.043178752 -0.13045493 1.0580001 8301151
-0.040422671 -0.13045493 1.0580001 15767560
-0.031235702 -0.13045493 1.0580001 1427893
-0.029398266 -0.13045493 1.0580001 16361312
-0.025723536 -0.13045493 1.0580001 16295492
-0.055121802 -0.12861751 1.0580001 13591845
-0.05236572 -0.12861751 1.0580001 1427893
-0.049609635 -0.12861751 1.0580001 14451457
-0.047772199 -0.12861751 1.0580001 1427893
-0.037360325 -0.12800507 1.0580001 11053145
-0.033991784 -0.12769884 1.0580001 8761970
-0.031235702 -0.12861751 1.0580001 16294471
-0.027560901 -0.12861751 1.0580001 16361290
-0.033991784 -0.12494274 1.0580001 16161590
-0.0073704417 -0.16583429 1.0610001 16052169
-0.011055592 -0.1621491 1.0610001 13140495
-0.0073704417 -0.16399167 1.0610001 1427893
-0.0055277962 -0.16399167 1.0610001 1427893
-0.011055592 -0.16030648 1.0610001 1427893
-0.0073704417 -0.16030648 1.0610001 1427893
-0.0092130173 -0.15754259 1.0610001 1427893
-0.0073704417 -0.15846391 1.0610001 13996345
-0.0092130173 -0.15477869 1.0610001 12941852
-0.0073704417 -0.15477869 1.0610001 1427893
-0.0092130173 -0.15201479 1.0610001 1427893
-0.011055592 -0.14556566 1.0610001 13467913
-0.066333696 -0.14188045 1.0610001 1427893
-0.064491116 -0.14280176 1.0610001 6066056
-0.013819525 -0.14188045 1.0610001 1427893
-0.016583459 -0.13819526 1.0610001 14715168
-0.016583459 -0.13635263 1.0610001 14848050
-0.023032542 -0.13266742 1.0610001 1427893
-0.019654419 -0.13328163 1.0610001 10463071
-0.016583459 -0.13451004 1.0610001 14848325
-0.023032542 -0.13082485 1.0610001 8631674
-0.057734892 -0.12836802 1.0610001 1427893
-0.0552781 -0.12713964 1.0610001 13864264
-0.052514203 -0.12713964 1.0610001 1427893
-0.049750302 -0.12713964 1.0610001 1427893
-0.046065085 -0.12898222 1.0610001 1427893
-0.042994082 -0.12836802 1.0610001 10592326
-0.040537287 -0.12806094 1.0610001 15504188
-0.038694642 -0.12713964 1.0610001 1427893
-0.031324271 -0.12713964 1.0610001 1427893
-0.029481625 -0.12898222 1.0610001 1427893
-0.025796475 -0.12898222 1.0610001 16427330
-0.023953831 -0.12898222 1.0610001 1427893
-0.040537287 -0.12529702 1.0610001 15437351
-0.037773356 -0.12529702 1.0610001 1427893
-0.034088172 -0.12345444 1.0610001 8367469
-0.031324271 -0.12437573 1.0610001 8893817
-0.029481625 -0.12345444 1.0610001 16426540
-0.034088172 -0.12161181 1.0610001 1427893
-0.031324271 -0.12161181 1.0610001 16490792
-0.0092390664 -0.16260758 1.064 1427893
-0.0073912819 -0.16260758 1.064 14922871
-0.0092390664 -0.16075975 1.064 1427893
-0.0055434261 -0.16075975 1.064 1427893
-0.0073912819 -0.15706412 1.064 13992734
-0.0055434261 -0.15891196 1.064 1427893
-0.0073912819 -0.15336849 1.064 1427893
-0.0092390664 -0.14782509 1.064 1427893
-0.0098549947 -0.14474539 1.064 5353082
-0.068369105 -0.14228162 1.064 15066335
-0.010162959 -0.14228162 1.064 1427893
-0.013858601 -0.13950992 1.064 4634765
-0.0098549947 -0.13981789 1.064 5550752
-0.013858601 -0.13673817 1.064 7907444
-0.011086852 -0.13673817 1.064 1427893
-0.01663035 -0.13304254 1.064 1427893
-0.013858601 -0.13489039 1.064 1427893
-0.010162959 -0.13489039 1.064 14788703
-0.022173773 -0.12934692 1.064 1427893
-0.019709993 -0.13057882 1.064 15572293
-0.048043121 -0.12749913 1.064 1427893
-0.046195332 -0.12749913 1.064 1427893
-0.044347547 -0.12749913 1.064 14779649
-0.028641094 -0.12749913 1.064 8828797
-0.024945488 -0.12749913 1.064 8894587
-0.052662686 -0.1256513 1.064 7578986
-0.048967049 -0.1256513 1.064 7513447
-0.043423619 -0.1256513 1.064 7971420
-0.040651906 -0.12380351 1.064 13860865
-0.03788016 -0.12380351 1.064 1427893
-0.028641094 -0.1256513 1.064 8828791
-0.025869416 -0.1256513 1.064 16427073
-0.036956266 -0.12103178 1.064 1427893
-0.035108484 -0.12010788 1.064 1427893
-0.0055642659 -0.1632189 1.0680001 1427893
-0.0037095344 -0.16136409 1.0680001 1427893
-0.0055642659 -0.1576546 1.0680001 1427893
-0.0055642659 -0.15487246 1.0680001 1427893
-0.0074190688 -0.15116295 1.0680001 7708251
-0.0055642659 -0.15023556 1.0680001 1427893
-0.0074190688 -0.14838082 1.0680001 13986305
-0.0055642659 -0.14838082 1.0680001 1427893
-0.0074190688 -0.14559868 1.0680001 1427893
-0.0055642659 -0.14559868 1.0680001 1427893
-0.0074190688 -0.14281651 1.0680001 14585440
-0.011128532 -0.139107 1.0680001 14122279
-0.0074190688 -0.14003439 1.0680001 14921902
-0.0055642659 -0.14096178 1.0680001 1427893
-0.0092738001 -0.13725223 1.0680001 14000002
-0.0074190688 -0.13725223 1.0680001 15260632
-0.046369001 -0.12612367 1.0680001 1427893
-0.05193327 -0.12426893 1.0680001 1427893
-0.049151137 -0.12426893 1.0680001 1427893
-0.043586869 -0.12426893 1.0680001 7447389
-0.027821401 -0.12426893 1.0680001 1427893
-0.042659469 -0.12055942 1.0680001 10057220
-0.040804736 -0.12148678 1.0680001 6853980
-0.038949933 -0.12148678 1.0680001 1427893
-0.0037199543 -0.15995744 1.0710001 1427893
-0.0055798958 -0.14321768 1.0710001 1427893
-0.046499252 -0.12461801 1.0710001 1427893
-0.043709308 -0.12275802 1.0710001 1427893
-0.0037303744 -0.15854029 1.074 15921106
-0.048675265 -0.12356035 1.0780001 1427893
-0.046803169 -0.12356035 1.0780001 12679180
