# .PCD v0.7 - Point Cloud Data file format
VERSION 0.7
FIELDS x y z rgba
SIZE 4 4 4 4
TYPE F F F U
COUNT 1 1 1 1
WIDTH 528
HEIGHT 1
VIEWPOINT 0 0 0 1 0 0 0
POINTS 528
DATA ascii
0.14610925 -0.17818199 1.026 13993224
0.14789104 -0.17818199 1.026 13927437
0.14610925 -0.1764002 1.026 1780689
0.14907894 -0.17580625 1.026 5851275
0.1514547 -0.17461835 1.026 14123266
0.15501836 -0.17461835 1.026 14189057
0.1425456 -0.17283656 1.026 13729543
0.14967288 -0.17194563 1.026 1780689
0.1514547 -0.17283656 1.026 14188803
0.14489011 -0.18424298 1.0300001 13994241
0.14846763 -0.18424298 1.0300001 14124034
0.13773505 -0.18066545 1.0300001 1780689
0.13952379 -0.18066545 1.0300001 13928450
0.14310133 -0.18066545 1.0300001 13993473
0.1457845 -0.18155982 1.0300001 4800926
0.14846763 -0.18155982 1.0300001 13730067
0.15115079 -0.18155982 1.0300001 4800929
0.15472832 -0.18155982 1.0300001 1780689
0.13773505 -0.17887665 1.0300001 1780689
0.13952379 -0.17798229 1.0300001 7821673
0.14220695 -0.17798229 1.0300001 7887209
0.14489011 -0.17798229 1.0300001 7886441
0.15144894 -0.17828041 1.0300001 13992713
0.15472832 -0.17798229 1.0300001 4800925
0.15741146 -0.17798229 1.0300001 14123521
0.13952379 -0.17529912 1.0300001 1780689
0.14220695 -0.17529912 1.0300001 7755370
0.1457845 -0.17529912 1.0300001 7886185
0.14846763 -0.17529912 1.0300001 1780689
0.15383394 -0.17529912 1.0300001 14123265
0.15741146 -0.17529912 1.0300001 14255361
0.13952379 -0.17261599 1.0300001 13532675
0.14190882 -0.17231786 1.0300001 9593416
0.1457845 -0.17261599 1.0300001 1780689
0.14846763 -0.17261599 1.0300001 14188291
0.15204518 -0.17172159 1.0300001 14319618
0.15472832 -0.17261599 1.0300001 4931997
0.15741146 -0.17261599 1.0300001 14386177
0.13952379 -0.16903846 1.0300001 14190087
0.14220695 -0.16903846 1.0300001 11038774
0.1457845 -0.16903846 1.0300001 8018281
0.14846763 -0.16903846 1.0300001 14254337
0.15115079 -0.16903846 1.0300001 1780689
0.15443021 -0.1693366 1.0300001 10183494
0.13952379 -0.16635533 1.0300001 14650113
0.14220695 -0.16635533 1.0300001 14648833
0.1457845 -0.16635533 1.0300001 8214377
0.14846763 -0.16635533 1.0300001 14846209
0.15115079 -0.16635533 1.0300001 14778625
0.15383394 -0.16635533 1.0300001 14777857
0.14220695 -0.16367216 1.0300001 8346729
0.1457845 -0.16367216 1.0300001 1780689
0.14846763 -0.16367216 1.0300001 8609385
0.15115079 -0.16367216 1.0300001 5128861
0.14220695 -0.160989 1.0300001 8674921
0.1457845 -0.160989 1.0300001 8805993
0.1502564 -0.160989 1.0300001 1780689
0.14262114 -0.18657355 1.033 1780689
0.14531213 -0.18657355 1.033 14059523
0.14830206 -0.18717156 1.033 10184007
0.15159103 -0.18657355 1.033 1780689
0.154282 -0.18747056 1.033 13860865
0.15607598 -0.18657355 1.033 1780689
0.1390332 -0.18477961 1.033 14060290
0.14262114 -0.18477961 1.033 1780689
0.1471061 -0.18477961 1.033 1780689
0.15159103 -0.18477961 1.033 7886697
0.154282 -0.18477961 1.033 1780689
0.15697296 -0.18477961 1.033 13992193
0.13454826 -0.18119165 1.033 13928449
0.13634223 -0.18119165 1.033 13928449
0.1390332 -0.1829856 1.033 7887465
0.14232215 -0.18238764 1.033 1780689
0.15786994 -0.18208863 1.033 14123265
0.16026191 -0.18178964 1.033 1780689
0.13454826 -0.17760371 1.033 1780689
0.13634223 -0.17850068 1.033 1780689
0.13813622 -0.17760371 1.033 1780689
0.16056091 -0.17850068 1.033 4866205
0.13454826 -0.17401576 1.033 1780689
0.13634223 -0.17491272 1.033 1780689
0.13813622 -0.17491272 1.033 7755369
0.16056091 -0.17491272 1.033 4866461
0.13454826 -0.17222175 1.033 13927939
0.13634223 -0.17222175 1.033 13861126
0.13813622 -0.17222175 1.033 1780689
0.16056091 -0.17222175 1.033 14518017
0.13454826 -0.16953081 1.033 1780689
0.13634223 -0.16953081 1.033 1780689
0.13813622 -0.16953081 1.033 7951213
0.15727195 -0.16923182 1.033 10315846
0.16026191 -0.16982982 1.033 1780689
0.13634223 -0.16683985 1.033 1780689
0.13873421 -0.16564386 1.033 10382406
0.154282 -0.16504586 1.033 15039233
0.15697296 -0.16594285 1.033 11628853
0.15966392 -0.16594285 1.033 8346473
0.13634223 -0.16325191 1.033 1780689
0.1390332 -0.16325191 1.033 8477801
0.154282 -0.16325191 1.033 15239425
0.13993017 -0.16145791 1.033 15503873
0.14351813 -0.1596639 1.033 1780689
0.14531213 -0.1596639 1.033 15965441
0.14830206 -0.16026191 1.033 11104838
0.15189002 -0.16026191 1.033 1780689
0.154282 -0.16056091 1.033 15634433
0.14351813 -0.15786995 1.033 16227330
0.14531213 -0.15697294 1.033 16228632
0.14800307 -0.15697294 1.033 12746830
0.15159103 -0.15697294 1.033 9003376
0.154282 -0.15697294 1.033 9004141
0.14213575 -0.19251297 1.036 13075228
0.14573413 -0.19251297 1.036 13074972
0.14843291 -0.19251297 1.036 12944661
0.15203127 -0.19251297 1.036 12812293
0.15473007 -0.19251297 1.036 12353031
0.15832843 -0.19431219 1.036 9588231
0.1367382 -0.19071381 1.036 13796907
0.13943698 -0.19071381 1.036 1780689
0.14303535 -0.19071381 1.036 7886704
0.14573413 -0.19071381 1.036 13927184
0.14843291 -0.19071381 1.036 7886701
0.15203127 -0.19071381 1.036 1780689
0.15473007 -0.19071381 1.036 13795076
0.15742885 -0.19071381 1.036 1780689
0.16012761 -0.19071381 1.036 1780689
0.1340394 -0.1871154 1.036 8150639
0.1367382 -0.18801501 1.036 14193182
0.13943698 -0.18801501 1.036 7887721
0.14303535 -0.18891461 1.036 1780689
0.14573413 -0.18891461 1.036 13992965
0.14753333 -0.18891461 1.036 1780689
0.15203127 -0.18891461 1.036 1780689
0.15772872 -0.18831488 1.036 5851020
0.16072735 -0.18771514 1.036 9724243
0.13134061 -0.18531623 1.036 14127875
0.1340394 -0.18441662 1.036 4867229
0.1367382 -0.18441662 1.036 14060290
0.16132708 -0.18471651 1.036 5916299
0.163726 -0.18351702 1.036 14125061
0.16552518 -0.18351702 1.036 1780689
0.13044104 -0.18171786 1.036 13929729
0.1331398 -0.18171786 1.036 13929217
0.163726 -0.18171786 1.036 14124553
0.16552518 -0.18171786 1.036 14191119
0.13044104 -0.17901906 1.036 4735645
0.13373953 -0.17931893 1.036 1780689
0.163726 -0.17901906 1.036 7952746
0.16642477 -0.17901906 1.036 4866718
0.16912355 -0.17991865 1.036 1780689
0.13044104 -0.1754207 1.036 4670109
0.13373953 -0.17572057 1.036 9660742
0.163726 -0.1754207 1.036 14190081
0.16552518 -0.17632028 1.036 14190594
0.13044104 -0.17272192 1.036 7756393
0.1331398 -0.17272192 1.036 13862913
0.163726 -0.17272192 1.036 14517506
0.16552518 -0.17272192 1.036 14452228
0.13074091 -0.17032301 1.036 1780689
0.1331398 -0.17002314 1.036 1780689
0.16192681 -0.16912355 1.036 1780689
0.163726 -0.17002314 1.036 14714627
0.16612491 -0.17032301 1.036 1780689
0.1340394 -0.16642477 1.036 8083305
0.1367382 -0.16552517 1.036 1780689
0.16192681 -0.16642478 1.036 1780689
0.163726 -0.16642478 1.036 15042817
0.16552518 -0.16642478 1.036 8346473
0.1340394 -0.16372602 1.036 14976769
0.15742885 -0.16372602 1.036 15174913
0.16102721 -0.16372602 1.036 15307777
0.163726 -0.16372602 1.036 15307777
0.13943698 -0.16102719 1.036 15634945
0.14213575 -0.16012758 1.036 1780689
0.15742885 -0.16102719 1.036 1780689
0.16102721 -0.16102719 1.036 1780689
0.163726 -0.16102719 1.036 15505415
0.16552518 -0.16192681 1.036 1780689
0.14033656 -0.15742883 1.036 16227844
0.14273548 -0.15712897 1.036 6639756
0.15742885 -0.15742883 1.036 12549687
0.16012761 -0.15742883 1.036 8872041
0.14393495 -0.15473007 1.036 16623874
0.14573413 -0.15473007 1.036 16689439
0.14843291 -0.15473007 1.036 16687161
0.15203127 -0.15473007 1.036 16490283
0.15473007 -0.15473007 1.036 16490532
0.15742885 -0.15473007 1.036 16424216
0.14573413 -0.15293086 1.036 16689951
0.14843291 -0.15293086 1.036 9202821
0.15203127 -0.15293086 1.036 1780689
0.15473007 -0.15293086 1.036 16555574
0.15652926 -0.15293086 1.036 1780689
0.13352536 -0.19307044 1.039 11304708
0.13623196 -0.19307044 1.039 12157221
0.13984075 -0.19307044 1.039 12943137
0.14435174 -0.19307044 1.039 13074973
0.15788472 -0.19307044 1.039 11696652
0.1605913 -0.19307044 1.039 11104526
0.1623957 -0.19307044 1.039 11037198
0.1311195 -0.19006312 1.039 1780689
0.13352536 -0.19036385 1.039 7757164
0.13532975 -0.19036385 1.039 1780689
0.16329791 -0.19036385 1.039 1780689
0.16600451 -0.19036385 1.039 12680724
0.17231989 -0.18946165 1.039 8818147
0.12811217 -0.18765724 1.039 14127909
0.13081877 -0.18765724 1.039 14127893
0.16420011 -0.18765724 1.039 1780689
0.16690668 -0.18765724 1.039 13337356
0.12720996 -0.18495065 1.039 4801696
0.13051805 -0.18464993 1.039 5852300
0.16420011 -0.18585287 1.039 1780689
0.16720742 -0.1852514 1.039 9988681
0.16961329 -0.18495065 1.039 14058505
0.17141768 -0.18585287 1.039 1780689
0.12720996 -0.18134187 1.039 10843968
0.16780888 -0.18224408 1.039 1780689
0.16961329 -0.18224408 1.039 13994775
0.12720996 -0.1786353 1.039 13733380
0.16961329 -0.1786353 1.039 14125578
0.12811217 -0.17592868 1.039 13732865
0.16720742 -0.17562795 1.039 1780689
0.16961329 -0.17683086 1.039 1780689
0.12811217 -0.17231989 1.039 13863681
0.16780888 -0.17322206 1.039 14452226
0.16961329 -0.17231989 1.039 14452481
0.17141768 -0.1714177 1.039 1780689
0.12811217 -0.16961329 1.039 13928961
0.12991658 -0.16961329 1.039 1780689
0.16780888 -0.16961329 1.039 1780689
0.16961329 -0.16961329 1.039 14649601
0.17141768 -0.16961329 1.039 14583553
0.12811217 -0.16690671 1.039 7953001
0.13081877 -0.1669067 1.039 8018537
0.16780888 -0.16690671 1.039 8281193
0.16961329 -0.16690671 1.039 14650369
0.12811217 -0.16420013 1.039 14584321
0.13081877 -0.16420013 1.039 14781697
0.13352536 -0.1623957 1.039 1780689
0.13623196 -0.1623957 1.039 1780689
0.16720742 -0.16359866 1.039 6245515
0.16961329 -0.16329792 1.039 8281193
0.17141768 -0.1623957 1.039 1780689
0.13623196 -0.16059129 1.039 8674921
0.13893856 -0.16059129 1.039 1780689
0.16690668 -0.16059129 1.039 8543085
0.16961329 -0.16059129 1.039 15110403
0.13623196 -0.15788472 1.039 8873065
0.13893856 -0.15788472 1.039 8806505
0.16329791 -0.1578847 1.039 12352828
0.16690668 -0.15788472 1.039 5194915
0.13984075 -0.15427592 1.039 12879677
0.14254734 -0.15427592 1.039 9201515
0.14435174 -0.1533737 1.039 1780689
0.15878691 -0.1533737 1.039 1780689
0.1605913 -0.15427592 1.039 16423183
0.16329791 -0.15427592 1.039 12876612
0.16660596 -0.15457666 1.039 11497828
0.13984075 -0.15156932 1.039 9203060
0.14254734 -0.15156932 1.039 1780689
0.14525393 -0.15156932 1.039 9203592
0.14886272 -0.15156932 1.039 1780689
0.15156931 -0.15156932 1.039 1780689
0.15427592 -0.15156932 1.039 9202042
0.15788472 -0.15156932 1.039 1780689
0.1605913 -0.15156932 1.039 16620811
0.16420011 -0.15156932 1.039 16620577
0.13210128 -0.19362791 1.0420001 10714370
0.16467422 -0.19362791 1.0420001 11035689
0.16648383 -0.19362791 1.0420001 11038789
0.12757728 -0.1900087 1.0420001 1780689
0.1302917 -0.19181834 1.0420001 1780689
0.1688966 -0.19061193 1.0420001 1780689
0.11943405 -0.18638949 1.0420001 1780689
0.12124366 -0.18638949 1.0420001 1780689
0.12425965 -0.18699269 1.0420001 5721767
0.12667246 -0.18819907 1.0420001 1780689
0.17010301 -0.18819907 1.0420001 1780689
0.17311905 -0.18759589 1.0420001 11117474
0.12486286 -0.18457986 1.0420001 13669425
0.17281744 -0.18457986 1.0420001 7691129
0.12395805 -0.18186547 1.0420001 7757678
0.17191264 -0.18186547 1.0420001 1780689
0.12486286 -0.17824626 1.0420001 13733131
0.12667246 -0.17734145 1.0420001 1780689
0.17191264 -0.17824626 1.0420001 7887467
0.12486286 -0.17553186 1.0420001 1780689
0.12667246 -0.17553186 1.0420001 1780689
0.17010301 -0.17553186 1.0420001 1780689
0.17191264 -0.17553186 1.0420001 14324225
0.12667246 -0.17281744 1.0420001 7822185
0.17281744 -0.17281744 1.0420001 1780689
0.12667246 -0.16919823 1.0420001 7821929
0.17311905 -0.16889665 1.0420001 5916555
0.12667246 -0.16648382 1.0420001 1780689
0.17281744 -0.16648382 1.0420001 1780689
0.12757728 -0.16376942 1.0420001 8149865
0.1302917 -0.1628646 1.0420001 1780689
0.13210128 -0.1628646 1.0420001 15042817
0.17311905 -0.16407102 1.0420001 6048651
0.1333077 -0.16045178 1.0420001 1780689
0.17010301 -0.1592454 1.0420001 1780689
0.17281744 -0.16105497 1.0420001 8347241
0.13391089 -0.15743577 1.0420001 15898370
0.17010301 -0.15743577 1.0420001 15307546
0.17191264 -0.15743577 1.0420001 14649869
0.13391089 -0.15472136 1.0420001 9002857
0.13662532 -0.15472136 1.0420001 12747836
0.16949981 -0.15441976 1.0420001 6246035
0.13662532 -0.15200698 1.0420001 16689941
0.13933973 -0.15019734 1.0420001 1780689
0.14205411 -0.15019734 1.0420001 9206666
0.14567333 -0.15019734 1.0420001 9206681
0.14838776 -0.15019734 1.0420001 1780689
0.15110216 -0.15019734 1.0420001 9202831
0.15472138 -0.15019734 1.0420001 9202033
0.1574358 -0.15019734 1.0420001 1780689
0.16015019 -0.15019734 1.0420001 9201001
0.16346781 -0.15080056 1.0420001 6705291
0.16648383 -0.15200698 1.0420001 16162113
0.16919822 -0.15200698 1.0420001 1780689
0.14295892 -0.14838776 1.0420001 16697148
0.14476854 -0.14838776 1.0420001 1780689
0.16105498 -0.14838776 1.0420001 1780689
0.12885199 -0.19237059 1.0450001 12290879
0.16968536 -0.19327798 1.0450001 12360547
0.17240758 -0.19237059 1.0450001 15256738
0.1188705 -0.18874091 1.0450001 15592932
0.12159273 -0.18874091 1.0450001 1780689
0.12340752 -0.18874091 1.0450001 1780689
0.17603724 -0.18692613 1.0450001 16711344
0.11917298 -0.18390143 1.0450001 6582743
0.12159273 -0.18420389 1.0450001 1780689
0.12340752 -0.18511128 1.0450001 1780689
0.17543231 -0.18390143 1.0450001 11378582
0.12159273 -0.18148166 1.0450001 13605195
0.17422241 -0.18148166 1.0450001 1780689
0.12340752 -0.17875946 1.0450001 1780689
0.17422241 -0.17785203 1.0450001 1780689
0.12431493 -0.17512982 1.0450001 7756928
0.17422241 -0.17512982 1.0450001 7951721
0.12522236 -0.1724076 1.0450001 1780689
0.12522236 -0.16968536 1.0450001 7887721
0.17603724 -0.16968536 1.0450001 7817608
0.12461741 -0.16575328 1.0450001 1780689
0.17603724 -0.16605574 1.0450001 7685261
0.12522236 -0.16333351 1.0450001 1780689
0.12703717 -0.16333351 1.0450001 1780689
0.17603724 -0.16333351 1.0450001 1780689
0.12885199 -0.16061127 1.0450001 1780689
0.13066682 -0.16061127 1.0450001 8477545
0.1324816 -0.15970388 1.0450001 1780689
0.17240758 -0.15970388 1.0450001 1780689
0.17422241 -0.15970388 1.0450001 14579969
0.13066682 -0.15698163 1.0450001 8609129
0.1324816 -0.15698163 1.0450001 8740457
0.17240758 -0.15607424 1.0450001 1780689
0.17422241 -0.15788902 1.0450001 14909953
0.1324816 -0.15425941 1.0450001 1780689
0.17240758 -0.15425941 1.0450001 14383465
0.13429642 -0.15244462 1.0450001 16689710
0.13611126 -0.15062977 1.0450001 16697906
0.16696316 -0.15062977 1.0450001 1780689
0.16877794 -0.15062977 1.0450001 15303717
0.17240758 -0.15244462 1.0450001 14465652
0.14155568 -0.14881498 1.0450001 1780689
0.14518534 -0.14700015 1.0450001 1780689
0.14790757 -0.14881498 1.0450001 9205651
0.15153718 -0.14790756 1.0450001 5458859
0.15425943 -0.14790756 1.0450001 9202552
0.15698165 -0.14881498 1.0450001 9201263
0.15970387 -0.14881498 1.0450001 1780689
0.16333351 -0.14881498 1.0450001 16424716
0.16514832 -0.14790756 1.0450001 1780689
0.1219418 -0.18018265 1.0480001 1780689
0.17593592 -0.18078932 1.0480001 14588221
0.17836261 -0.18018265 1.0480001 15656109
0.12103178 -0.17836261 1.0480001 1780689
0.17654261 -0.17836261 1.0480001 14388556
0.17836261 -0.17836261 1.0480001 15522199
0.11830174 -0.17472255 1.0480001 13408860
0.12072845 -0.17593592 1.0480001 5721235
0.1237618 -0.17472255 1.0480001 1780689
0.17654261 -0.17563258 1.0480001 13924672
0.17836261 -0.17563258 1.0480001 15322496
0.11557169 -0.1710825 1.0480001 1780689
0.11830174 -0.1710825 1.0480001 13404758
0.12072845 -0.1716892 1.0480001 5721484
0.1237618 -0.17199253 1.0480001 1780689
0.17654261 -0.17290255 1.0480001 13855293
0.17836261 -0.17199253 1.0480001 15253628
0.11284167 -0.1692625 1.0480001 16383741
0.11557169 -0.1692625 1.0480001 8286146
0.11830174 -0.1692625 1.0480001 13468506
0.12103178 -0.1692625 1.0480001 13863170
0.1237618 -0.1692625 1.0480001 1780689
0.17836261 -0.1692625 1.0480001 15186818
0.11284167 -0.16744246 1.0480001 16318205
0.11557169 -0.16744246 1.0480001 8818898
0.11830174 -0.16744246 1.0480001 13533270
0.12103178 -0.16653246 1.0480001 1780689
0.1237618 -0.16744246 1.0480001 14192643
0.17836261 -0.16744246 1.0480001 15120785
0.1219418 -0.1638024 1.0480001 14390017
0.1237618 -0.1638024 1.0480001 14520577
0.12497517 -0.1613757 1.0480001 10447942
0.12740187 -0.16107236 1.0480001 1780689
0.12740187 -0.1583423 1.0480001 15043841
0.1292219 -0.1574323 1.0480001 8412265
0.13104194 -0.15470225 1.0480001 16028419
0.13377196 -0.15197223 1.0480001 1780689
0.13832204 -0.15106221 1.0480001 1780689
0.1710825 -0.15106221 1.0480001 1780689
0.13923205 -0.14833218 1.0480001 9204591
0.1428721 -0.14742215 1.0480001 1780689
0.14833218 -0.14742215 1.0480001 9205894
0.15743232 -0.14742215 1.0480001 9201776
0.16107234 -0.14742215 1.0480001 1780689
0.1638024 -0.14742215 1.0480001 1780689
0.16744247 -0.14924221 1.0480001 1780689
0.14378211 -0.14560215 1.0480001 16694810
0.14560214 -0.14560215 1.0480001 16697635
0.15197222 -0.14560215 1.0480001 9203062
0.15470228 -0.14560215 1.0480001 16691221
0.15743232 -0.14560215 1.0480001 9202033
0.16107234 -0.14560215 1.0480001 1780689
0.14378211 -0.14287211 1.0480001 9202545
0.15470228 -0.14287211 1.0480001 16692497
0.15773566 -0.14256878 1.0480001 11696978
0.16016233 -0.14287211 1.0480001 16097813
0.15470228 -0.14014205 1.0480001 14332966
0.15743232 -0.14014205 1.0480001 1780689
0.12788814 -0.1936592 1.052 12031332
0.12423418 -0.19183221 1.052 13417141
0.12606116 -0.19183221 1.052 12757630
0.11631729 -0.18147936 1.052 1780689
0.11875327 -0.18178385 1.052 8817868
0.12058025 -0.18178385 1.052 8222641
0.11266338 -0.1784344 1.052 16711419
0.1160128 -0.1781299 1.052 1780689
0.11875327 -0.17812991 1.052 7890587
0.11327237 -0.17538942 1.052 16711421
0.1160128 -0.17538942 1.052 1780689
0.12240724 -0.17538942 1.052 1780689
0.11235888 -0.172649 1.052 12896754
0.1160128 -0.1735625 1.052 15721143
0.11875327 -0.1735625 1.052 13406801
0.12240724 -0.1735625 1.052 13997059
0.1160128 -0.16625459 1.052 1780689
0.11875327 -0.16625459 1.052 13532754
0.1160128 -0.16442761 1.052 8350905
0.11875327 -0.16442761 1.052 13533521
0.12118925 -0.16320962 1.052 10054726
0.12240724 -0.16077366 1.052 14783233
0.12423418 -0.16077366 1.052 1780689
0.12240724 -0.15894666 1.052 1780689
0.12423418 -0.15894666 1.052 14913025
0.12697464 -0.15803319 1.052 1780689
0.13032413 -0.15407476 1.052 6376844
0.13336904 -0.15163878 1.052 1780689
0.13336904 -0.14981183 1.052 16691742
0.1361095 -0.14889833 1.052 9202799
0.1361095 -0.14615789 1.052 16688386
0.13976347 -0.14524439 1.052 9203307
0.14250392 -0.14615789 1.052 1780689
0.14615788 -0.14433089 1.052 16691971
0.14920285 -0.1455489 1.052 11703130
0.15163878 -0.14433089 1.052 16689157
0.15346575 -0.14433089 1.052 1780689
0.15711971 -0.14433089 1.052 1780689
0.13976347 -0.14250395 1.052 9070204
0.14615788 -0.14250395 1.052 16690455
0.14981183 -0.14250395 1.052 16689430
0.15163878 -0.14250395 1.052 16690457
0.15346575 -0.14250395 1.052 16692764
0.13884999 -0.14067695 1.052 15249231
0.14889835 -0.14067695 1.052 1780689
0.15163878 -0.13976347 1.052 14322466
0.15346575 -0.13976347 1.052 1780689
0.11542754 -0.16306429 1.0550001 1780689
0.11817583 -0.16306429 1.0550001 7690384
0.12092411 -0.16123214 1.0550001 1780689
0.12642065 -0.15756777 1.0550001 1780689
0.12825285 -0.15481949 1.0550001 15569409
0.12825285 -0.15115513 1.0550001 8806761
0.13191721 -0.15115513 1.0550001 9069161
0.12184021 -0.14840683 1.0550001 1780689
0.13374938 -0.14474249 1.0550001 16033793
0.13649766 -0.14474249 1.0550001 9070441
0.14840686 -0.14474249 1.0550001 1780689
0.13649766 -0.14199422 1.0550001 8741262
0.14840686 -0.14291033 1.0550001 16693526
0.1139184 -0.16077191 1.0580001 16645883
0.11575577 -0.15985321 1.0580001 1780689
0.1188181 -0.16046569 1.0580001 5786538
0.12126797 -0.15985321 1.0580001 14323969
0.1139184 -0.15801583 1.0580001 1780689
0.11575577 -0.15709713 1.0580001 1780689
0.11851187 -0.15709713 1.0580001 5201114
0.12402406 -0.15801583 1.0580001 8347497
0.12678014 -0.15617841 1.0580001 15241473
0.12678014 -0.15434106 1.0580001 1780689
0.13045493 -0.15158495 1.0580001 8938857
0.12769884 -0.14882885 1.0580001 8673935
0.13045493 -0.14882885 1.0580001 1780689
0.13321102 -0.14882885 1.0580001 9203568
0.14331667 -0.14515407 1.0580001 16689153
0.14331667 -0.1433167 1.0580001 16689163
0.11608399 -0.1621491 1.0610001 1780689
0.11792661 -0.1621491 1.0610001 1780689
0.12161183 -0.15846391 1.0610001 1780689
0.12437573 -0.15662126 1.0610001 1780689
0.11976922 -0.15477869 1.0610001 15063983
0.12161183 -0.15477869 1.0610001 14848103
0.12437573 -0.15477869 1.0610001 8215938
0.11884791 -0.1510935 1.0610001 16383218
0.12161183 -0.1510935 1.0610001 15261924
0.12468283 -0.15170769 1.0610001 1780689
0.12713963 -0.15201479 1.0610001 1780689
0.12529702 -0.14925086 1.0610001 15250074
0.13451003 -0.14740829 1.0610001 1780689
0.12195569 -0.15706412 1.064 14583299
0.11826006 -0.1542924 1.064 15989495
0.12103178 -0.15336849 1.064 8417742
0.12380351 -0.15336849 1.064 1780689
0.13119476 -0.14782509 1.064 16028729
0.13304257 -0.14782509 1.064 1780689
