# .PCD v0.7 - Point Cloud Data file format
VERSION 0.7
FIELDS x y z rgba
SIZE 4 4 4 4
TYPE F F F U
COUNT 1 1 1 1
WIDTH 502
HEIGHT 1
VIEWPOINT 0 0 0 1 0 0 0
POINTS 502
DATA ascii
0.029139537 -0.17545718 1.0710001 12149327
0.031619504 -0.17669716 1.0710001 13206787
0.026039572 -0.17204724 1.0710001 11686774
0.028829539 -0.17204724 1.0710001 11686774
0.031619504 -0.17204724 1.0710001 11686774
0.034719434 -0.17173724 1.0710001 11686774
0.026039572 -0.1692573 1.0710001 12811778
0.028829539 -0.1692573 1.0710001 12877059
0.031619504 -0.1692573 1.0710001 13008132
0.035339426 -0.1692573 1.0710001 13006851
0.026039572 -0.16646731 1.0710001 12745732
0.028829539 -0.16646731 1.0710001 11686774
0.031619504 -0.16739731 1.0710001 12810500
0.034719434 -0.16615731 1.0710001 11686774
0.02789955 -0.16367736 1.0710001 12876549
0.026112514 -0.1781247 1.074 12347454
0.028599432 -0.17843556 1.0740001 11686774
0.031708077 -0.17905727 1.074 12679686
0.034505822 -0.1781247 1.074 11686774
0.0373036 -0.1781247 1.074 13073667
0.040101379 -0.17719212 1.074 12478780
0.026112514 -0.17532691 1.074 12943106
0.031708077 -0.17532691 1.074 13730312
0.034505822 -0.17532691 1.074 11686774
0.0373036 -0.17532691 1.074 13271302
0.040101379 -0.17532691 1.074 13336323
0.033573229 -0.17346177 1.074 11686774
0.0373036 -0.17252916 1.074 13073160
0.040101379 -0.17252918 1.074 11686774
0.044764314 -0.17159657 1.074 13203970
0.033573229 -0.16973141 1.074 13007365
0.0373036 -0.16973141 1.074 12941313
0.040101379 -0.16973141 1.074 12941313
0.043831721 -0.16973141 1.074 11686774
0.0466295 -0.16973141 1.074 13269763
0.031708077 -0.16600101 1.074 12810756
0.033573229 -0.1678662 1.074 11686774
0.0373036 -0.1669336 1.074 12810497
0.040101379 -0.1669336 1.074 12281148
0.043831717 -0.16693361 1.074 11686774
0.0466295 -0.1669336 1.074 13269505
0.026112514 -0.16320324 1.074 12942085
0.029221158 -0.16289237 1.0740001 11686774
0.031708077 -0.16320324 1.074 12876294
0.034505822 -0.16320324 1.074 12281405
0.0373036 -0.16320324 1.074 12876033
0.040101379 -0.16320324 1.074 12545822
0.043831721 -0.16320324 1.074 12280380
0.0466295 -0.16413584 1.074 11686774
0.026112514 -0.1604055 1.074 13138179
0.028910294 -0.1604055 1.074 11686774
0.031708077 -0.1604055 1.074 13072648
0.034505822 -0.1604055 1.074 13072389
0.0373036 -0.1604055 1.074 13071617
0.040101379 -0.1604055 1.074 13072385
0.043831721 -0.1604055 1.074 12345916
0.026112514 -0.1576077 1.074 13268481
0.028910294 -0.15760772 1.074 11686774
0.031708077 -0.1576077 1.074 13269003
0.034505822 -0.1576077 1.074 11686774
0.0373036 -0.1576077 1.074 13400321
0.040101379 -0.1576077 1.074 12148056
0.043520853 -0.15791857 1.0740001 11686774
0.026112514 -0.15480992 1.074 13531137
0.028910294 -0.15480992 1.074 13531152
0.031708077 -0.15480992 1.074 13729810
0.034505822 -0.15480992 1.074 13794059
0.0373036 -0.15480992 1.074 13860353
0.040101379 -0.15480992 1.074 13860865
0.042899124 -0.15480992 1.074 13859585
0.027977701 -0.15294479 1.074 11686774
0.034505822 -0.15294479 1.074 11686774
0.040101379 -0.15294479 1.074 11686774
0.043831721 -0.15294479 1.074 11686774
0.027977701 -0.14921442 1.074 14187532
0.034634337 -0.1834684 1.0780001 10510856
0.037442535 -0.1834684 1.0780001 10577427
0.040250733 -0.1834684 1.0780001 10380313
0.043994967 -0.1834684 1.0780001 9524754
0.026209768 -0.18159631 1.0780001 11105803
0.029017968 -0.18159631 1.0780001 11626560
0.031826168 -0.18159631 1.0780001 11565832
0.034634337 -0.18159631 1.0780001 11686774
0.037442535 -0.18159631 1.0780001 11686774
0.040250733 -0.18159631 1.0780001 11686774
0.043994967 -0.18159631 1.0780001 11626054
0.046803169 -0.18159631 1.0780001 10840362
0.048675302 -0.18159631 1.0780001 11686774
0.020593401 -0.17972416 1.0780001 11686774
0.040250733 -0.17972416 1.0780001 12412736
0.043994963 -0.1787881 1.0780001 11686774
0.046803169 -0.17878811 1.0780001 12346690
0.049299344 -0.1784761 1.0780001 12018002
0.052419536 -0.17972416 1.0780001 11686774
0.024337633 -0.17504385 1.0780001 11686774
0.043994963 -0.17504385 1.0780001 12544064
0.046803169 -0.17504385 1.0780001 13204488
0.049611367 -0.17504385 1.0780001 12082522
0.052419536 -0.1741078 1.0780001 13204503
0.022465535 -0.17223565 1.0780001 12812033
0.024337633 -0.17223565 1.0780001 11686774
0.043058902 -0.17223565 1.0780001 13203713
0.046803169 -0.17223565 1.0780001 13203973
0.049611367 -0.17223565 1.0780001 13203979
0.052419536 -0.17223565 1.0780001 13204246
0.020593401 -0.16942748 1.0780001 11686774
0.022465535 -0.16942748 1.0780001 12745985
0.024337633 -0.16942748 1.0780001 12216379
0.049611367 -0.16942748 1.0780001 11686774
0.052419536 -0.16942748 1.0780001 12478277
0.022465535 -0.16661926 1.0780001 12745473
0.024337633 -0.16661926 1.0780001 11686774
0.049611367 -0.16661926 1.0780001 12478011
0.052419536 -0.16661926 1.0780001 13269505
0.022465535 -0.16474715 1.0780001 12811265
0.024337633 -0.16381109 1.0780001 12281660
0.046803169 -0.16287501 1.0780001 13070868
0.049611367 -0.16381107 1.0780001 11686774
0.052419536 -0.16381109 1.0780001 13203460
0.022465535 -0.1610029 1.0780001 13006337
0.024337633 -0.15913077 1.0780001 11686774
0.046803169 -0.16006684 1.0780001 13201926
0.049611367 -0.16006683 1.0780001 12412227
0.052419536 -0.16006684 1.0780001 12543547
0.022465535 -0.15725866 1.0780001 13269505
0.024337633 -0.15725866 1.0780001 11686774
0.044931032 -0.15725866 1.0780001 13597953
0.046803169 -0.15725866 1.0780001 13597697
0.049611367 -0.15725866 1.0780001 12674875
0.025273699 -0.15445045 1.0780001 13597185
0.029954035 -0.15351442 1.0780001 11686774
0.031826168 -0.15351442 1.0780001 14057482
0.037442535 -0.15351442 1.0780001 14255617
0.044931032 -0.15538649 1.0780001 11686774
0.046803169 -0.15445045 1.0780001 11686774
0.048675302 -0.15445045 1.0780001 11686774
0.026209768 -0.15164225 1.0780001 13925633
0.029017968 -0.15164225 1.0780001 11686774
0.031826168 -0.15164225 1.0780001 14123266
0.034634337 -0.15164225 1.0780001 11686774
0.037442535 -0.15164225 1.0780001 14386945
0.040250733 -0.15164225 1.0780001 11686774
0.043994967 -0.15164225 1.0780001 13003579
0.046803169 -0.15164225 1.0780001 14385665
0.026209768 -0.14883408 1.0780001 14122500
0.029329991 -0.14852206 1.0780001 12476758
0.031826168 -0.14883408 1.0780001 14450966
0.034634337 -0.14883408 1.0780001 13069118
0.037442535 -0.14883408 1.0780001 14714627
0.039938714 -0.14914611 1.0780001 12608080
0.043994963 -0.14883408 1.0780001 12476509
0.025585722 -0.14540187 1.0780001 14451202
0.029017966 -0.14508983 1.0780001 12410205
0.031826168 -0.14508983 1.0780001 15305224
0.034634337 -0.1460259 1.0780001 13397567
0.039314669 -0.1460259 1.0780001 15502863
0.030976068 -0.18397897 1.0810001 10379536
0.046933416 -0.18397897 1.0810001 8735767
0.048810761 -0.18397897 1.0810001 8341279
0.019399149 -0.18147591 1.0810001 9459265
0.022528054 -0.181163 1.0810001 11038979
0.024405362 -0.18022431 1.0810001 11686774
0.050688107 -0.181163 1.0810001 10903644
0.052565414 -0.18210168 1.0810001 10584655
0.05444276 -0.18022431 1.0810001 12359777
0.020650713 -0.17834701 1.0810001 11686774
0.022528054 -0.17834701 1.0810001 12681219
0.024405362 -0.17834701 1.0810001 11686774
0.052565414 -0.17834701 1.0810001 12747799
0.055381432 -0.17834701 1.0810001 11686774
0.020650713 -0.175531 1.0810001 11686774
0.022528054 -0.175531 1.0810001 12878082
0.052565414 -0.17646964 1.0810001 13270295
0.055068545 -0.17521811 1.0810001 12807730
0.020650713 -0.17271498 1.0810001 12746755
0.05444276 -0.17271498 1.0810001 11686774
0.015018679 -0.1689603 1.0810001 11686774
0.055381432 -0.16989899 1.0810001 12478539
0.013141371 -0.16520564 1.0810001 12550163
0.015644461 -0.16583142 1.0810001 11952719
0.01971204 -0.1661443 1.0810001 12216123
0.05444276 -0.16614428 1.0810001 11686774
0.015957352 -0.16332828 1.0810001 12679937
0.01971204 -0.16332828 1.0810001 11686774
0.022528054 -0.16332828 1.0810001 12876546
0.05444276 -0.16332828 1.0810001 11686774
0.013141371 -0.16145097 1.0810001 12746246
0.015957352 -0.16051228 1.0810001 12281403
0.01971204 -0.16051228 1.0810001 11951192
0.022528054 -0.1595736 1.0810001 13137409
0.024405362 -0.16145097 1.0810001 13072130
0.05444276 -0.16051228 1.0810001 12543038
0.015957352 -0.15769629 1.0810001 13007106
0.01971204 -0.15769629 1.0810001 12478011
0.052565414 -0.15769629 1.0810001 11686774
0.015957352 -0.15488029 1.0810001 12477756
0.01971204 -0.15488029 1.0810001 11686774
0.022528054 -0.15488029 1.0810001 13531905
0.024405362 -0.15394163 1.0810001 11686774
0.050688107 -0.15488029 1.0810001 11686774
0.052565414 -0.15488029 1.0810001 12739899
0.016270243 -0.1514385 1.0810001 13663745
0.01971204 -0.15112561 1.0810001 12148312
0.022528054 -0.15112561 1.0810001 12740667
0.024405362 -0.15112561 1.0810001 11686774
0.046933416 -0.15018696 1.0810001 11686774
0.049436547 -0.1514385 1.0810001 11686774
0.052565414 -0.15206426 1.0810001 14253826
0.016896024 -0.14830959 1.0810001 14057473
0.01971204 -0.14830959 1.0810001 14123009
0.022528054 -0.14830959 1.0810001 14123009
0.024405362 -0.14830959 1.0810001 11686774
0.041301426 -0.14830959 1.0810001 14978311
0.020024931 -0.14580652 1.0810001 11686774
0.022528054 -0.14549361 1.0810001 14450948
0.024405362 -0.14455493 1.0810001 11686774
0.034730718 -0.14455493 1.0810001 11686774
0.037546735 -0.14549361 1.0810001 11686774
0.040362753 -0.14549361 1.0810001 13529161
0.045056075 -0.1464323 1.0810001 11686774
0.026282707 -0.14267762 1.0810001 15372290
0.028160051 -0.14267762 1.0810001 15503381
0.030976068 -0.14267762 1.0810001 15701030
0.033792049 -0.14267762 1.0810001 15834400
0.026282707 -0.14080025 1.0810001 11686774
0.028160051 -0.14080025 1.0810001 11686774
0.030037396 -0.13986157 1.0810001 11686774
0.016016398 -0.1808912 1.085 11686774
0.024495669 -0.18277551 1.085 10645511
0.055586353 -0.18183336 1.085 12101506
0.016016398 -0.17806478 1.085 11558492
0.018842833 -0.17806478 1.085 11686774
0.056528501 -0.17712262 1.085 11686774
0.05841279 -0.17712262 1.085 15053692
0.060925167 -0.17837882 1.085 12878999
0.064065628 -0.17900693 1.085 15197415
0.016016398 -0.17523839 1.085 12550444
0.018842833 -0.17523839 1.085 11686774
0.05841279 -0.17523839 1.085 13932110
0.060297083 -0.17523839 1.085 15058574
0.0056528356 -0.17335407 1.085 11686774
0.0075371265 -0.17335407 1.085 14007216
0.013189998 -0.17146981 1.085 12486936
0.016016398 -0.17241195 1.085 11886173
0.018842833 -0.17241195 1.085 12151357
0.056528501 -0.17335407 1.085 11686774
0.05841279 -0.17241195 1.085 12943657
0.060297083 -0.17146981 1.085 11686774
0.013189998 -0.1695855 1.085 12682266
0.016958542 -0.1695855 1.085 11686774
0.018842833 -0.1695855 1.085 11686774
0.05841279 -0.1695855 1.085 13139227
0.010363562 -0.16675907 1.085 11686774
0.013189998 -0.1677012 1.085 12615964
0.016958542 -0.1677012 1.085 12680962
0.056528501 -0.16675907 1.085 12477767
0.05841279 -0.1677012 1.085 13205785
0.011305708 -0.16299051 1.085 11686774
0.013189998 -0.16393264 1.085 12615691
0.056528501 -0.16299051 1.085 11686774
0.011305708 -0.16016407 1.085 11686774
0.013189998 -0.16016407 1.085 12811265
0.056528501 -0.16016407 1.085 13531147
0.011305708 -0.15733765 1.085 12150331
0.013189998 -0.15733765 1.085 12875521
0.054644208 -0.15733765 1.085 11686774
0.013189998 -0.15451126 1.085 13071617
0.054644208 -0.15451126 1.085 13991939
0.015074253 -0.15074268 1.085 11686774
0.050875667 -0.15074268 1.085 11686774
0.052759919 -0.15074268 1.085 14451467
0.054644208 -0.15168482 1.085 13003586
0.015074253 -0.14885837 1.085 13860865
0.047107086 -0.14885837 1.085 14844949
0.049933523 -0.14885837 1.085 13200197
0.052759919 -0.14885837 1.085 14648340
0.054644208 -0.14885837 1.085 11686774
0.016958542 -0.14697413 1.085 11686774
0.018842833 -0.14508982 1.085 11686774
0.041454248 -0.14508982 1.085 11686774
0.043338504 -0.14697413 1.085 15240477
0.046478987 -0.14571792 1.085 11686774
0.048991375 -0.14603198 1.085 15043105
0.022611415 -0.14320555 1.085 15042316
0.024495669 -0.14320555 1.085 15305479
0.032032833 -0.14132126 1.085 11686774
0.035173282 -0.14194936 1.085 13069402
0.037685666 -0.14320555 1.085 15835428
0.039569959 -0.14320555 1.085 11686774
0.02637996 -0.13943695 1.085 11686774
0.028264251 -0.13943695 1.085 11686774
0.032032833 -0.13943695 1.085 16689963
0.034859233 -0.13943695 1.085 14188366
0.031090688 -0.13755269 1.085 11686774
0.013226468 -0.18139134 1.0880001 10257254
0.0585743 -0.18139134 1.0880001 13943202
0.061408535 -0.18139134 1.0880001 14339260
0.0075579663 -0.17855713 1.0880001 13685448
0.010392218 -0.17855713 1.0880001 11686774
0.013226468 -0.17855713 1.0880001 11686774
0.0585743 -0.17950189 1.0880001 14471339
0.062353268 -0.17761238 1.0880001 11686774
0.064242773 -0.17761238 1.0880001 15985384
0.005668466 -0.17572291 1.0880001 11686774
0.0075579663 -0.17572291 1.0880001 14142183
0.010392218 -0.17572291 1.0880001 12153156
0.013226468 -0.17572291 1.0880001 12288549
0.062353268 -0.17572291 1.0880001 16182715
0.0047237333 -0.17194392 1.0880001 11686774
0.0075579663 -0.17194392 1.0880001 13474681
0.010392218 -0.17288865 1.0880001 11686774
0.013226468 -0.17383339 1.0880001 12354590
0.061723448 -0.17320357 1.0880001 11686774
0.064242773 -0.17288865 1.0880001 13672093
0.0047237333 -0.17005441 1.0880001 11686774
0.0075579663 -0.16910964 1.0880001 12281703
0.010707135 -0.16942458 1.0880001 12153674
0.061408535 -0.16910964 1.0880001 12809045
0.064242773 -0.16910964 1.0880001 13473679
0.0075579663 -0.16627543 1.0880001 12156216
0.0094474675 -0.16627543 1.0880001 11686774
0.0585743 -0.16627543 1.0880001 13334548
0.060463801 -0.16627543 1.0880001 13662480
0.0094474675 -0.16344117 1.0880001 12019789
0.0585743 -0.16344117 1.0880001 12610368
0.060463801 -0.16344117 1.0880001 11686774
0.0094474675 -0.16060692 1.0880001 12549385
0.0585743 -0.16060692 1.0880001 13665542
0.060463801 -0.16060692 1.0880001 11686774
-0.0018894646 -0.15682793 1.0880001 16184301
0.0012596671 -0.15745777 1.0880001 13413808
0.0094474675 -0.15777269 1.0880001 11686774
0.056684803 -0.15777269 1.0880001 12740669
0.0585743 -0.15777269 1.0880001 12741692
-0.0037790011 -0.15493847 1.0880001 15984870
-0.0018894646 -0.15399373 1.0880001 16119277
0.00094475027 -0.15399373 1.0880001 12948380
0.0037790011 -0.15304896 1.0880001 11686774
0.010707135 -0.15430865 1.0880001 12017487
0.013226468 -0.15304896 1.0880001 13268225
0.056684803 -0.15399373 1.0880001 11686774
0.0585743 -0.15399373 1.0880001 11686774
0.060463801 -0.15304896 1.0880001 11686774
-0.0018894646 -0.1511595 1.0880001 15921641
-0 -0.1511595 1.0880001 11686774
0.011336968 -0.1511595 1.0880001 11686774
0.013226468 -0.1511595 1.0880001 13465605
0.056684803 -0.1511595 1.0880001 14255124
0.0585743 -0.1511595 1.0880001 14124051
0.060463801 -0.1511595 1.0880001 13795347
0.011336968 -0.14926997 1.0880001 11686774
0.013226468 -0.14832523 1.0880001 13860103
0.015115933 -0.1473805 1.0880001 11686774
0.051961068 -0.1473805 1.0880001 13201227
0.056054972 -0.14801033 1.0880001 11686774
0.0585743 -0.14832523 1.0880001 11686774
0.060463801 -0.14926997 1.0880001 13992733
0.017005432 -0.14549099 1.0880001 14320899
0.043458335 -0.14549099 1.0880001 15437356
0.051961068 -0.14549099 1.0880001 15043626
0.055740051 -0.14549099 1.0880001 11686774
0.0585743 -0.14549099 1.0880001 14255391
0.019839685 -0.14360152 1.0880001 13134908
0.0245634 -0.141712 1.0880001 11686774
0.03778987 -0.141712 1.0880001 11686774
0.040939037 -0.14234184 1.0880001 13003607
0.043458335 -0.14265676 1.0880001 15768347
0.046292581 -0.14265676 1.0880001 13595213
0.049126837 -0.14265676 1.0880001 15503648
0.051961068 -0.14265676 1.0880001 12608612
0.055740051 -0.14265676 1.0880001 11686774
0.0245634 -0.13982248 1.0880001 11686774
0.03778987 -0.13982248 1.0880001 16691022
0.040624119 -0.13982248 1.0880001 16494882
0.043458335 -0.13982248 1.0880001 16098854
0.046292581 -0.13982248 1.0880001 13793109
0.049126837 -0.13982248 1.0880001 15899440
0.051961068 -0.13982248 1.0880001 13596768
0.026452899 -0.13793302 1.0880001 11686774
0.028342402 -0.13698825 1.0880001 16292616
0.031176651 -0.1360435 1.0880001 11686774
0.034955613 -0.13698825 1.0880001 11686774
0.03778987 -0.13698825 1.0880001 14188645
0.040624119 -0.13793302 1.0880001 11686774
0.046607502 -0.13730317 1.0880001 13135205
0.051961068 -0.13698825 1.0880001 13924954
0.030861735 -0.13352421 1.0880001 14844717
0.034010865 -0.13320929 1.0880001 14120763
0.051961064 -0.13320929 1.0880001 12551962
0.030231901 -0.13037506 1.0880001 14977035
0.010420872 -0.18189152 1.0910001 11642268
0.0018947106 -0.16862857 1.0910001 16252380
0.0047367583 -0.16862857 1.0910001 11686774
0.0047367583 -0.16673389 1.0910001 13217435
0.062525198 -0.16673389 1.0910001 13996612
0.06441991 -0.16673389 1.0910001 11686774
0.00094735529 -0.1629445 1.0910001 13213601
0.0050525377 -0.16357607 1.0910001 11686774
0.0075788065 -0.16389184 1.0910001 11954006
0.062525198 -0.16389184 1.0910001 11686774
0.06441991 -0.16389184 1.0910001 11686774
-0.0018946745 -0.16010243 1.0910001 13935282
0.00063157023 -0.16041821 1.0910001 13875132
0.0047367583 -0.16010243 1.0910001 12084608
0.0075788065 -0.16010243 1.0910001 11953987
0.061893642 -0.15978666 1.0910001 11686774
0.0047367583 -0.15726037 1.0910001 11686774
0.0075788065 -0.15726037 1.0910001 11686774
0.06157786 -0.15726037 1.0910001 11686774
0.0050525377 -0.15473413 1.0910001 12152947
0.0075788065 -0.15441833 1.0910001 12019003
0.0094735166 -0.15347096 1.0910001 11686774
0.061893642 -0.15473413 1.0910001 12278879
0.0018947106 -0.15157628 1.0910001 14803144
0.0047367583 -0.15157628 1.0910001 12483703
0.0075788065 -0.15157628 1.0910001 12284161
0.0094735166 -0.15157628 1.0910001 11686774
0.0012631405 -0.14905 1.0910001 12945559
0.0047367583 -0.14873423 1.0910001 11686774
0.0075788065 -0.14873421 1.0910001 12283393
0.010105087 -0.14841844 1.0910001 11686774
0.013262938 -0.14589216 1.0910001 11686774
0.015157613 -0.14589216 1.0910001 11686774
0.017052323 -0.14399749 1.0910001 11686774
0.019894388 -0.14210276 1.0910001 11686774
0.022736454 -0.14210276 1.0910001 11686774
0.058735814 -0.14305013 1.0910001 13068152
0.020210175 -0.13957648 1.0910001 12870479
0.022736454 -0.13926069 1.0910001 13659968
0.02463113 -0.13831335 1.0910001 15829505
0.043578167 -0.13831335 1.0910001 16363319
0.049262296 -0.13831335 1.0910001 16096579
0.054946389 -0.14020804 1.0910001 11686774
0.02652584 -0.13641861 1.0910001 11686774
0.040736131 -0.13641861 1.0910001 11686774
0.043578167 -0.13641861 1.0910001 16688678
0.045472875 -0.13641861 1.0910001 16426042
0.049262296 -0.13641861 1.0910001 16294477
0.02652584 -0.13357657 1.0910001 13791293
0.028420551 -0.13357657 1.0910001 16290312
0.032209974 -0.13262922 1.0910001 11686774
0.035999358 -0.13357657 1.0910001 11686774
0.037894066 -0.13357657 1.0910001 16621574
0.040736131 -0.13357657 1.0910001 11686774
0.043578167 -0.13357657 1.0910001 16688666
0.046420231 -0.13452394 1.0910001 11686774
0.049262296 -0.13357657 1.0910001 11686774
0.02652584 -0.13073455 1.0910001 11686774
0.028420551 -0.13073455 1.0910001 14453256
0.032209974 -0.13073455 1.0910001 15505422
0.037894066 -0.13073455 1.0910001 16162072
0.040736131 -0.13073455 1.0910001 13729870
0.043578167 -0.13073455 1.0910001 15511848
-0.0019016211 -0.16734521 1.095 15789549
0.00095082866 -0.16639438 1.095 11686774
0.0038033146 -0.16544354 1.095 11686774
0.064656094 -0.16068943 1.095 13072749
0.064656094 -0.15783694 1.095 14591840
0.064656094 -0.15593533 1.095 11686774
0.011409908 -0.14642705 1.095 13466369
0.013311565 -0.14452542 1.095 11686774
0.015213186 -0.14452542 1.095 11686774
0.016164016 -0.14262375 1.095 13200188
0.016164016 -0.13977127 1.095 13134907
0.019016501 -0.13882045 1.095 11686774
0.020284273 -0.13628492 1.095 12871250
0.022819815 -0.13596797 1.095 15567875
0.024721436 -0.13596797 1.095 13660477
0.022819815 -0.13311549 1.095 15042827
0.024721436 -0.13311549 1.095 11686774
0.046590421 -0.13311549 1.095 11686774
0.046590421 -0.13121386 1.095 11686774
0.049442906 -0.13121386 1.095 11686774
0.066740103 -0.1658968 1.098 15986348
0.066740103 -0.16303653 1.098 11686774
0.066740103 -0.16017626 1.098 15721129
0.0076274332 -0.14682822 1.098 12478465
0.010487733 -0.1458748 1.098 11686774
0.011441167 -0.14206105 1.098 11686774
0.013348035 -0.14206105 1.098 13795841
0.013348035 -0.13920078 1.098 14057474
0.016208299 -0.1363405 1.098 13728547
0.019068601 -0.13538708 1.098 11686774
0.020975469 -0.13348019 1.098 11686774
0.06698323 -0.15884595 1.102 11686774
0.001913814 -0.14736313 1.102 15529955
0.004784517 -0.14736313 1.102 11686774
0.0076552196 -0.14544933 1.102 12673870
0.009569034 -0.14544933 1.102 11686774
0.009569034 -0.14257857 1.102 12345698
0.010525941 -0.13970789 1.102 11686774
0.011482848 -0.13779406 1.102 14326096
0.013396662 -0.13779406 1.102 14388778
0.016267346 -0.13396645 1.102 11750205
0.019138068 -0.13396645 1.102 11686774
0.001919024 -0.14584529 1.105 15593699
0.004797542 -0.14584529 1.105 11686774
0.0057570357 -0.1420072 1.105 11686774
0.0076760594 -0.14296673 1.105 12413320
0.0057778759 -0.14444725 1.1090001 11686774
0.0019381274 -0.14535899 1.1160001 15460835
0.0038762549 -0.14535899 1.1160001 14408934
