# .PCD v0.7 - Point Cloud Data file format
VERSION 0.7
FIELDS x y z rgba
SIZE 4 4 4 4
TYPE F F F U
COUNT 1 1 1 1
WIDTH 493
HEIGHT 1
VIEWPOINT 0 0 0 1 0 0 0
POINTS 493
DATA ascii
0.12541513 -0.18463896 1.003 12531924
0.12802793 -0.18463896 1.003 13655661
0.12106043 -0.1820261 1.003 13126309
0.12454419 -0.1820261 1.003 13060774
0.12802793 -0.18202612 1.003 13589615
0.13064076 -0.18115516 1.003 14649098
0.11670575 -0.1794133 1.003 12531924
0.12106043 -0.17854236 1.003 13589871
0.12454419 -0.17854236 1.003 13126561
0.12802793 -0.17854236 1.003 13060770
0.13064076 -0.17854236 1.003 14911236
0.13325357 -0.17854236 1.003 12531924
0.13586637 -0.17767142 1.003 14845698
0.11844761 -0.17592956 1.003 14713089
0.12106043 -0.1750586 1.003 13655146
0.12454419 -0.1750586 1.003 13720682
0.12802793 -0.1750586 1.003 13720682
0.13064076 -0.1750586 1.003 14844676
0.13325357 -0.1750586 1.003 13721450
0.13586637 -0.1750586 1.003 13786989
0.12454419 -0.1724458 1.003 15041025
0.12802793 -0.1724458 1.003 13852525
0.13064076 -0.1724458 1.003 14976783
0.13325357 -0.1724458 1.003 15107345
0.13586637 -0.1724458 1.003 15107854
0.12454419 -0.17070392 1.003 13852524
0.12802793 -0.16983297 1.003 13192352
0.13064076 -0.16983299 1.003 12531924
0.13325357 -0.16983299 1.003 13918320
0.136447 -0.16954267 1.003 15238661
0.12541513 -0.16722016 1.003 12531924
0.12802793 -0.16634923 1.003 14049643
0.13064076 -0.16634923 1.003 15566859
0.13238263 -0.16634923 1.003 12531924
0.1252079 -0.18752065 1.006 13855816
0.12753731 -0.18781182 1.006 14386437
0.13015795 -0.18781184 1.006 12995231
0.1327786 -0.18693827 1.006 14122753
0.11880188 -0.1834441 1.006 14910986
0.12142253 -0.18519121 1.006 12531924
0.12404317 -0.18519121 1.006 14714127
0.1310315 -0.18431765 1.006 13590386
0.13365214 -0.18431765 1.006 12995489
0.11880188 -0.181697 1.006 14910473
0.13365215 -0.181697 1.006 14648586
0.13627276 -0.181697 1.006 12531924
0.11792836 -0.17820282 1.006 13590124
0.13627276 -0.17994992 1.006 14714116
0.13860223 -0.17878519 1.006 13986894
0.11530773 -0.17645575 1.006 14778633
0.11763718 -0.17529103 1.006 13985867
0.1388934 -0.1755822 1.006 13656178
0.11880188 -0.17208806 1.006 14909711
0.12142252 -0.17208806 1.006 14315068
0.1388934 -0.17208806 1.006 13787001
0.12229607 -0.16946743 1.006 15106324
0.12491671 -0.16946743 1.006 15238154
0.13976695 -0.16946743 1.006 15238402
0.12229607 -0.16684678 1.006 12531924
0.12462553 -0.16655561 1.006 13456014
0.13452569 -0.16684678 1.006 12531924
0.13627276 -0.16684678 1.006 15500809
0.1388934 -0.16684678 1.006 13257887
0.12229607 -0.16422614 1.006 12531924
0.1252079 -0.16364379 1.006 13587341
0.12753731 -0.16335261 1.006 16025607
0.13015795 -0.16335261 1.006 15300668
0.13365215 -0.16335261 1.006 14246255
0.13627276 -0.16422614 1.006 15830282
0.13015795 -0.16073197 1.006 14510196
0.12166392 -0.18906051 1.008 13393005
0.12428977 -0.18906051 1.008 14450693
0.1269156 -0.19081104 1.008 13206030
0.13041672 -0.19081104 1.008 12736119
0.13391785 -0.18906051 1.008 13064048
0.13654368 -0.18906051 1.008 13660178
0.12166392 -0.18730992 1.008 12531924
0.13479315 -0.18730992 1.008 13991698
0.13654368 -0.18730992 1.008 12531924
0.1181628 -0.1846841 1.008 13721965
0.13654368 -0.1846841 1.008 14386191
0.13829423 -0.1846841 1.008 13393262
0.1181628 -0.18118295 1.008 13655661
0.13946128 -0.18147472 1.0080001 13193878
0.11291112 -0.17855711 1.008 12531924
0.11553697 -0.17855711 1.008 14778630
0.11291112 -0.17593127 1.008 13590124
0.11553697 -0.175056 1.008 12531924
0.1423789 -0.17563951 1.0080001 13987927
0.11028527 -0.17330545 1.008 14385670
0.11291112 -0.17243016 1.008 13060775
0.11553697 -0.17243016 1.008 14779189
0.11728753 -0.17243016 1.008 13655168
0.14267066 -0.17243016 1.008 12531924
0.11291112 -0.16892904 1.008 14250039
0.11553697 -0.16892904 1.008 15042051
0.1181628 -0.16892904 1.008 13786474
0.12078863 -0.16892904 1.008 13785967
0.14267066 -0.16892904 1.008 13126559
0.11291112 -0.16630322 1.008 15107075
0.11553697 -0.16630322 1.008 12531924
0.1181628 -0.16630322 1.008 15368964
0.12078863 -0.16630322 1.008 15302404
0.14179537 -0.16630322 1.008 15304193
0.11291112 -0.16455263 1.008 13852523
0.11553697 -0.16455263 1.008 15433987
0.1181628 -0.16455263 1.008 13983339
0.12137216 -0.16338561 1.0080001 12531924
0.12428977 -0.1628021 1.008 15894529
0.13654368 -0.1628021 1.008 15961097
0.13916951 -0.16367736 1.008 13323424
0.14179537 -0.16455263 1.008 12531924
0.12253921 -0.16017625 1.008 14376810
0.12428977 -0.16017625 1.008 16354327
0.1269156 -0.16017625 1.008 15365967
0.13041672 -0.15930098 1.008 14510713
0.13391785 -0.16017625 1.008 14378866
0.13654368 -0.16017625 1.008 14311796
0.13829423 -0.16105153 1.008 15961611
0.1269156 -0.15755041 1.008 16685114
0.13041672 -0.15755041 1.008 16684850
0.13391785 -0.15755041 1.008 16619560
0.12290391 -0.19313473 1.011 12416778
0.12465968 -0.19313473 1.011 12416533
0.12729332 -0.19313473 1.011 12088353
0.13080487 -0.19313473 1.011 11693855
0.13343853 -0.19313473 1.011 10839315
0.13607219 -0.19313473 1.011 9985046
0.11851448 -0.18962319 1.011 12531924
0.12202602 -0.19137894 1.011 13337354
0.12465968 -0.19137894 1.011 13402121
0.13343853 -0.19137894 1.011 12531924
0.13607219 -0.19137894 1.011 12146282
0.13958371 -0.19050106 1.011 12273578
0.11236928 -0.18698952 1.011 14716737
0.11500294 -0.18698952 1.011 14185790
0.11822186 -0.18728215 1.011 13922377
0.13987634 -0.18728215 1.011 13461838
0.14221738 -0.18611164 1.011 14320653
0.11236928 -0.18435585 1.011 14978129
0.11500294 -0.18435585 1.011 14911765
0.14046159 -0.18435585 1.011 14386697
0.14221738 -0.18435585 1.011 12531924
0.10973563 -0.18172219 1.011 13061030
0.11236928 -0.18172219 1.011 13722246
0.11500294 -0.18172219 1.011 13126559
0.14309527 -0.18172219 1.011 13524868
0.1457289 -0.18084432 1.011 14651173
0.10710198 -0.17821065 1.011 13721719
0.10973563 -0.17821065 1.011 13590642
0.1433879 -0.17850327 1.011 13259160
0.1457289 -0.17821065 1.011 13591164
0.14748468 -0.17821065 1.011 12531924
0.089544274 -0.17557698 1.011 12531924
0.10710198 -0.17557698 1.011 14649363
0.10973563 -0.17557698 1.011 13590382
0.1457289 -0.17557698 1.011 14388001
0.14748468 -0.17557698 1.011 14649898
0.089544274 -0.17382126 1.011 12531924
0.091300055 -0.17382126 1.011 12531924
0.0930558 -0.17382126 1.011 12531924
0.10710198 -0.17294335 1.011 14583048
0.10944301 -0.17265072 1.011 13062287
0.1457289 -0.17294335 1.011 12531924
0.14748468 -0.17294335 1.011 13720948
0.10973563 -0.16943182 1.011 13524332
0.1457289 -0.16943182 1.011 13721195
0.14748468 -0.16943182 1.011 12531924
0.10710198 -0.16679816 1.011 15107841
0.10973563 -0.16592027 1.011 13786987
0.14397316 -0.16592027 1.011 13852266
0.1457289 -0.16592027 1.011 13786474
0.10973563 -0.16328663 1.011 15633665
0.11236928 -0.16328663 1.011 15698433
0.11500294 -0.16328663 1.011 15764737
0.11851448 -0.16328663 1.011 14182250
0.14309527 -0.16328663 1.011 15500802
0.1457289 -0.16328663 1.011 15369730
0.11002826 -0.16094559 1.011 12531924
0.11236928 -0.16065297 1.011 16289537
0.11500294 -0.16065297 1.011 14378099
0.11851448 -0.16065297 1.011 13454755
0.12114813 -0.16065297 1.011 14377068
0.13987634 -0.16036034 1.011 14775367
0.14280264 -0.16094559 1.011 12531924
0.11763661 -0.1580193 1.011 16683296
0.12231865 -0.15743405 1.011 13915799
0.12465968 -0.15714142 1.011 16687671
0.12729332 -0.15626352 1.011 14575243
0.13080487 -0.15626352 1.011 12531924
0.13343853 -0.15626352 1.011 16620597
0.13636482 -0.15684879 1.011 15103330
0.13958371 -0.15714142 1.011 14313071
0.12202602 -0.15450777 1.011 16688709
0.12465968 -0.15450777 1.011 16688714
0.12729332 -0.15450777 1.011 14576781
0.13080487 -0.15450777 1.011 14576269
0.13343853 -0.15450777 1.011 12531924
0.13607219 -0.15450777 1.011 16685614
0.13958371 -0.15450777 1.011 14575478
0.12290391 -0.15275198 1.011 12531924
0.12465968 -0.15275198 1.011 16692564
0.12729332 -0.15187411 1.011 13522353
0.13080487 -0.15187411 1.011 13522353
0.13343853 -0.15187411 1.011 16687663
0.13607219 -0.15187411 1.011 13521069
0.13929109 -0.15216674 1.011 13916311
0.13168275 -0.14924043 1.011 12531924
0.13999791 -0.19370782 1.0140001 9919516
0.10653929 -0.19018586 1.0140001 12868478
0.11006126 -0.19018586 1.0140001 12531924
0.11270272 -0.19018586 1.0140001 12531924
0.1153442 -0.19018586 1.0140001 13458540
0.11886616 -0.19194682 1.0140001 13335819
0.1426394 -0.19106634 1.0140001 12416547
0.14440039 -0.19018586 1.0140001 12531924
0.14968331 -0.19018586 1.0140001 15848358
0.1514443 -0.19018586 1.0140001 16249820
0.10653929 -0.18754439 1.0140001 13991747
0.11006126 -0.18754439 1.0140001 12930983
0.1426394 -0.18842486 1.0140001 12531924
0.14528087 -0.18754439 1.0140001 12864425
0.14968331 -0.18754438 1.0140001 14186922
0.10653929 -0.1840224 1.0140001 14450509
0.11006126 -0.18490291 1.0140001 14978855
0.14557436 -0.1843159 1.0140002 13128343
0.14880282 -0.1831419 1.0140001 13393264
0.10653929 -0.18138094 1.0140001 13722486
0.14880282 -0.18138094 1.0140001 13328510
0.1514443 -0.18138094 1.0140001 12531924
0.15320529 -0.18138094 1.0140001 16378276
0.10565881 -0.17873946 1.0140001 13721976
0.14968331 -0.17873946 1.0140001 12531924
0.1514443 -0.17873946 1.0140001 13787258
0.15320529 -0.17873946 1.0140001 12531924
0.10565881 -0.17521751 1.0140001 13590645
0.14968331 -0.17521751 1.0140001 13721721
0.1514443 -0.17521751 1.0140001 14843151
0.15379226 -0.17492402 1.0140002 14389397
0.14968331 -0.17257603 1.0140001 14910989
0.1514443 -0.17257603 1.0140001 14777349
0.15496622 -0.17257603 1.0140001 15654033
0.10683279 -0.16964108 1.0140002 14052424
0.14968331 -0.16993457 1.0140001 12531924
0.1514443 -0.16993457 1.0140001 14513665
0.15408576 -0.16993457 1.0140001 13992888
0.1062458 -0.16611913 1.0140002 14314823
0.14880282 -0.16641262 1.0140001 13654890
0.1514443 -0.16641262 1.0140001 14381569
0.15496622 -0.16729313 1.0140001 15454133
0.10653929 -0.16289066 1.0140001 14114667
0.14616133 -0.16201015 1.0140001 15697409
0.14850932 -0.16318417 1.0140002 13920071
0.1514443 -0.16377117 1.0140001 12531924
0.10741979 -0.16024922 1.0140001 16091142
0.10918078 -0.16024922 1.0140001 16222219
0.14528087 -0.16024922 1.0140001 14180202
0.10741979 -0.1584882 1.0140001 16288003
0.11006126 -0.1584882 1.0140001 14575725
0.11270272 -0.1576077 1.0140001 16619529
0.1153442 -0.1576077 1.0140001 14574969
0.11915965 -0.15731421 1.0140002 15300698
0.12150762 -0.15672719 1.0140001 12531924
0.1426394 -0.1576077 1.0140001 16291329
0.14498737 -0.15790121 1.0140002 12531924
0.1153442 -0.15496625 1.0140001 16686110
0.11886616 -0.15408574 1.0140001 13521321
0.12150762 -0.15320523 1.0140001 12531924
0.1426394 -0.15408574 1.0140001 16684045
0.14440039 -0.15408574 1.0140001 14379121
0.11974663 -0.1514443 1.0140001 16622677
0.12150762 -0.1514443 1.0140001 16692058
0.1241491 -0.1514443 1.0140001 14579354
0.14087841 -0.1514443 1.0140001 16686340
0.1426394 -0.1514443 1.0140001 16683283
0.1241491 -0.14968328 1.0140001 14581919
0.12767106 -0.14968328 1.0140001 12531924
0.13031252 -0.14968328 1.0140001 16690770
0.13324749 -0.14850932 1.0140002 13917344
0.13647595 -0.14880282 1.0140001 14575755
0.13970442 -0.14909631 1.0140002 12531924
0.1077376 -0.1925147 1.0170001 10777660
0.1095038 -0.1925147 1.0170001 11368449
0.11215305 -0.1925147 1.0170001 12222210
0.11568545 -0.1925147 1.0170001 13140997
0.1448276 -0.1925147 1.0170001 11369261
0.14659375 -0.19074854 1.0170001 12418630
0.10420521 -0.18721616 1.0170001 15113273
0.14835997 -0.18721616 1.0170001 14911550
0.10420521 -0.18456686 1.0170001 13789559
0.14835997 -0.18544996 1.0170001 12531924
0.15100925 -0.18456686 1.0170001 12531924
0.15454161 -0.18368374 1.0170001 16709847
0.1554247 -0.18103448 1.0170001 16447466
0.10420521 -0.1783852 1.0170001 14782248
0.1554247 -0.1783852 1.0170001 16117193
0.095374256 -0.17573589 1.0170001 15451048
0.1033221 -0.17573589 1.0170001 14121289
0.1554247 -0.17661898 1.0170001 15787690
0.10420521 -0.17220353 1.0170001 12531924
0.1059714 -0.17220353 1.0170001 13655658
0.15365854 -0.17308661 1.0170001 14646859
0.10420521 -0.16955423 1.0170001 12531924
0.1571909 -0.16955423 1.0170001 16711377
0.10420521 -0.16690496 1.0170001 15107843
0.15365854 -0.16690496 1.0170001 13325463
0.1571909 -0.16778807 1.0170001 16711385
0.10420521 -0.16337258 1.0170001 15435783
0.15100925 -0.16248947 1.0170001 12531924
0.15365854 -0.16425569 1.0170001 14316890
0.1059714 -0.16072331 1.0170001 15894785
0.14835997 -0.16072331 1.0170001 14911234
0.15100925 -0.16072331 1.0170001 12531924
0.1059714 -0.15895709 1.0170001 12531924
0.1095038 -0.15719089 1.0170001 12531924
0.11126996 -0.15719089 1.0170001 12531924
0.14659375 -0.15719089 1.0170001 12531924
0.14835997 -0.15807399 1.0170001 14910740
0.15012614 -0.15807399 1.0170001 12531924
0.1095038 -0.15542471 1.0170001 12531924
0.11244743 -0.15483598 1.0170001 15302478
0.11568545 -0.15365851 1.0170001 14576500
0.14659375 -0.15454161 1.0170001 12531924
0.14835997 -0.15454161 1.0170001 13589618
0.15012614 -0.15542471 1.0170001 13458766
0.11656855 -0.15189235 1.0170001 16622131
0.11833475 -0.15189235 1.0170001 16622404
0.12098402 -0.15012613 1.0170001 14581151
0.14306141 -0.15012613 1.0170001 12531924
0.14571068 -0.15189235 1.0170001 14247035
0.12363331 -0.14835998 1.0170001 12531924
0.12804878 -0.14835998 1.0170001 12531924
0.13069806 -0.14835998 1.0170001 12531924
0.14217831 -0.14835998 1.0170001 14574191
0.13246426 -0.14659375 1.0170001 12531924
0.13687974 -0.14659375 1.0170001 12531924
0.13952902 -0.14659375 1.0170001 16685094
0.14188395 -0.14600503 1.0170001 12531924
0.14791191 -0.1930826 1.0200001 11699561
0.10096981 -0.19131123 1.0200001 13678776
0.10392213 -0.19072077 1.0200002 13270426
0.1487976 -0.19042552 1.0200001 13334178
0.15234041 -0.18953981 1.0200001 16249084
0.15411182 -0.18953981 1.0200001 16711421
0.15234041 -0.18776843 1.0200001 16248517
0.1549975 -0.18776843 1.0200001 16711407
0.10274119 -0.18511128 1.0200001 13789555
0.15234041 -0.18599701 1.0200001 12531924
0.1549975 -0.18599701 1.0200001 16711394
0.10362689 -0.1815685 1.0200001 14318153
0.092112809 -0.17802571 1.0200001 16711422
0.094474666 -0.17832094 1.0200002 15053794
0.097427003 -0.17802571 1.0200001 13857962
0.10008411 -0.17802571 1.0200001 13657467
0.10274119 -0.17891142 1.0200001 12531924
0.097427003 -0.17536862 1.0200001 12531924
0.10008411 -0.17536862 1.0200001 13526648
0.092112809 -0.17271149 1.0200001 14392297
0.094769895 -0.17271151 1.0200001 14058173
0.097427003 -0.17359719 1.0200001 14588750
0.10037935 -0.17300674 1.0200002 13726546
0.10274119 -0.17271149 1.0200001 13459316
0.097427003 -0.17005439 1.0200001 14652217
0.10008411 -0.17005439 1.0200001 14847495
0.10274119 -0.16916871 1.0200001 13721707
0.10274119 -0.16651161 1.0200001 12531924
0.10274119 -0.16385451 1.0200001 13853299
0.15411182 -0.1629688 1.0200001 14518883
0.10392213 -0.16001648 1.0200002 13587342
0.15234041 -0.159426 1.0200001 12531924
0.15411182 -0.16119742 1.0200001 14655597
0.106284 -0.15765458 1.0200001 12531924
0.10805541 -0.15765458 1.0200001 16490497
0.10451259 -0.15588321 1.0200001 12531924
0.106284 -0.1549975 1.0200001 14575467
0.10864588 -0.15470225 1.0200002 13917325
0.11159819 -0.15411177 1.0200001 12531924
0.1133696 -0.15234041 1.0200001 16689951
0.115141 -0.15234041 1.0200001 16688681
0.11868382 -0.15056899 1.0200001 12531924
0.14525482 -0.15056899 1.0200001 12531924
0.14791191 -0.1514547 1.0200001 13585261
0.1133696 -0.14879762 1.0200001 12531924
0.11691241 -0.14879762 1.0200001 12531924
0.11868382 -0.14879762 1.0200001 16695662
0.12134089 -0.14879762 1.0200001 12531924
0.12488371 -0.14791191 1.0200001 14581665
0.12754081 -0.1470262 1.0200001 16695163
0.13019788 -0.1470262 1.0200001 14579579
0.1346264 -0.1470262 1.0200001 16687936
0.14525482 -0.14791191 1.0200001 15567626
0.1470262 -0.14879762 1.0200001 14520641
0.132855 -0.14525482 1.0200001 12531924
0.13639782 -0.14525482 1.0200001 12531924
0.13905489 -0.14525482 1.0200001 14575221
0.1434834 -0.14525482 1.0200001 15698224
0.13639782 -0.14348339 1.0200001 16685090
0.13905489 -0.14348339 1.0200001 14507630
0.141712 -0.14348339 1.0200001 16090881
0.10304337 -0.19009727 1.023 12531924
0.097713552 -0.18832068 1.023 16378348
0.10037848 -0.18743238 1.023 13993931
0.10304337 -0.18832068 1.023 12531924
0.10037848 -0.18476743 1.023 12531924
0.09475252 -0.18180643 1.023 12531924
0.097713552 -0.18121421 1.023 12531924
0.10037848 -0.18210253 1.023 13856152
0.097713552 -0.17233118 1.023 12531924
0.099490173 -0.17233118 1.023 12531924
0.092383742 -0.16966626 1.023 14392296
0.095048621 -0.16966628 1.023 13191609
0.097713552 -0.16877797 1.023 14716976
0.10037848 -0.16877797 1.023 12531924
0.097713552 -0.16611305 1.023 14913347
0.10037848 -0.16611305 1.023 14383182
0.097713552 -0.16344813 1.023 15174201
0.10037848 -0.16344813 1.023 15306523
0.095936932 -0.1598949 1.023 15435890
0.097713552 -0.16078322 1.023 15107633
0.10037848 -0.16078322 1.023 13258143
0.10304337 -0.16167153 1.023 15633923
0.097713552 -0.15722999 1.023 15108179
0.10037848 -0.15722997 1.023 13984106
0.10363558 -0.15752608 1.023 14905415
0.097713552 -0.15456505 1.023 15240048
0.10037848 -0.15456505 1.023 15633921
0.10393168 -0.15456505 1.023 16356609
0.097713552 -0.15190016 1.023 15445646
0.10037848 -0.15190016 1.023 14907477
0.10393168 -0.15190016 1.023 12531924
0.1065966 -0.15190016 1.023 16686344
0.10926153 -0.15190016 1.023 13522092
0.11251863 -0.15160406 1.023 15305313
0.11547965 -0.15101184 1.023 12531924
0.11725627 -0.15101184 1.023 12531924
0.10037848 -0.14923525 1.023 14115989
0.10393168 -0.14923525 1.023 16422173
0.1065966 -0.14923525 1.023 16686634
0.10926153 -0.14923525 1.023 16688944
0.11281473 -0.14834693 1.023 14580617
0.11547965 -0.14834693 1.023 14583462
0.11814458 -0.14745863 1.023 14583721
0.12169778 -0.14745863 1.023 14584223
0.12613931 -0.14745863 1.023 12531924
0.11903289 -0.14568204 1.023 16701816
0.12169778 -0.14568204 1.023 12531924
0.12436271 -0.14568204 1.023 12531924
0.12702763 -0.14568204 1.023 16696171
0.13058083 -0.14568204 1.023 14580626
0.13502237 -0.14568204 1.023 12531924
0.11903289 -0.1439054 1.023 12531924
0.12199388 -0.14331321 1.023 12531924
0.12436271 -0.14301711 1.023 14579841
0.12702763 -0.1439054 1.023 14581147
0.13058083 -0.14301711 1.023 12531924
0.13324575 -0.14301711 1.023 16687917
0.13502237 -0.1439054 1.023 12531924
0.13946387 -0.14212883 1.023 14378133
0.14212881 -0.14212883 1.023 16094824
0.12258609 -0.1394639 1.023 14511722
0.12436271 -0.1394639 1.023 16423473
0.12258609 -0.13679898 1.023 16169414
0.12436271 -0.13679898 1.023 16368068
0.12702763 -0.13679898 1.023 16501453
0.097109184 -0.19065475 1.026 15394276
0.10067284 -0.19065475 1.026 12531924
0.096812218 -0.18768506 1.026 13859551
0.097109184 -0.18441838 1.026 14588383
0.09265466 -0.16660018 1.026 14260712
0.094436452 -0.16660018 1.026 13924542
0.096218273 -0.16660018 1.026 13788052
0.094436452 -0.16303656 1.026 15452324
0.096218273 -0.16303656 1.026 13852051
0.10601829 -0.14789104 1.026 14576271
0.10958195 -0.14789104 1.026 14580097
0.11225465 -0.14789104 1.026 12531924
0.11047286 -0.14432742 1.026 12531924
0.11225465 -0.14521834 1.026 16627730
0.11492739 -0.14521834 1.026 13524405
0.11760014 -0.14521834 1.026 14583723
0.11225465 -0.14254561 1.026 16554558
0.11492739 -0.14254561 1.026 16623646
0.11849105 -0.14254561 1.026 14579846
0.12116375 -0.14254561 1.026 12531924
0.12740014 -0.14254561 1.026 14578818
0.13541833 -0.14254561 1.026 12531924
0.11849105 -0.13987288 1.026 12531924
0.12116375 -0.13987288 1.026 14511722
0.12740014 -0.13987288 1.026 14444420
0.13096377 -0.13987288 1.026 16356663
0.13096377 -0.13720015 1.026 16503258
0.11000916 -0.14667888 1.0300001 12531924
0.11537544 -0.14131257 1.0300001 14510452
