# .PCD v0.7 - Point Cloud Data file format
VERSION 0.7
FIELDS x y z rgba
SIZE 4 4 4 4
TYPE F F F U
COUNT 1 1 1 1
WIDTH 527
HEIGHT 1
VIEWPOINT 0 0 0 1 0 0 0
POINTS 527
DATA ascii
0.024955902 -0.17136386 0.95800006 262757
0.025787769 -0.16886826 0.95800006 262757
0.028283367 -0.1680364 0.95800006 11366158
0.025787767 -0.16637266 0.95800006 5715768
0.028283367 -0.16637266 0.95800006 11365901
0.0074867671 -0.1630452 0.95800006 10511889
0.023292167 -0.1630452 0.95800006 10972167
0.025787767 -0.16387707 0.95800006 2956621
0.028283367 -0.16387707 0.95800006 5781560
0.0074867671 -0.16054964 0.95800006 5387321
0.010814233 -0.16054964 0.95800006 262757
0.013864378 -0.16027234 0.95800006 7226403
0.016637268 -0.15971775 0.95800006 10709505
0.018300999 -0.15971775 0.95800006 262757
0.021628434 -0.15971775 0.95800006 262757
0.025787767 -0.16054963 0.95800006 8475418
0.028837934 -0.16027234 0.95800006 3941956
0.0083186338 -0.15722218 0.95800006 10642945
0.011646099 -0.15722218 0.95800006 5452595
0.014141668 -0.15722218 0.95800006 8211482
0.016637268 -0.15722218 0.95800006 5518643
0.018855579 -0.1569449 0.95800006 7423266
0.021628434 -0.15722218 0.95800006 5715251
0.025787767 -0.15722218 0.95800006 8605978
0.028837934 -0.15749948 0.95800006 7752227
0.0083186338 -0.15389472 0.95800006 10774017
0.014973534 -0.15389472 0.95800006 5649715
0.016637268 -0.15389472 0.95800006 11233793
0.018855579 -0.15361744 0.95800006 7620386
0.021628434 -0.15306287 0.95800006 262757
0.025787769 -0.15389472 0.95800006 5912371
0.028283367 -0.15389472 0.95800006 11759111
0.016637268 -0.15139915 0.95800006 11496705
0.019132867 -0.15139915 0.95800006 11627521
0.021628434 -0.15139915 0.95800006 11758338
0.025787767 -0.15139915 0.95800006 11889934
0.016637268 -0.14890353 0.95800006 262757
0.019410156 -0.14862625 0.95800006 12022529
0.024955902 -0.14890353 0.95800006 262757
0.0075102123 -0.1719005 0.96100003 5387574
0.013351481 -0.1719005 0.96100003 10841091
0.016689368 -0.1719005 0.96100003 10841604
0.019192781 -0.1719005 0.96100003 5650483
0.022530636 -0.1719005 0.96100003 5716020
0.025868524 -0.17273495 0.96100003 262757
0.028371936 -0.1719005 0.96100003 11433218
0.0016689431 -0.16856262 0.96100003 262757
0.0041723419 -0.16939709 0.96100003 5387832
0.0075102123 -0.16939709 0.96100003 7950110
0.010848098 -0.17023154 0.96100003 5518900
0.013351481 -0.16939709 0.96100003 10906116
0.016133053 -0.16967523 0.96100008 7293221
0.019192781 -0.16939709 0.96100003 5584695
0.022530636 -0.16939709 0.96100003 5650231
0.028371936 -0.17023154 0.96100003 262757
0.030040847 -0.16939709 0.96100003 262757
0.0011126287 -0.16633736 0.96100008 7030308
0.0041723419 -0.1660592 0.96100003 8015647
0.0075102123 -0.1660592 0.96100003 8080673
0.010848098 -0.1660592 0.96100003 5453108
0.013351481 -0.1660592 0.96100003 10775043
0.015854895 -0.1660592 0.96100003 8147230
0.019192781 -0.1660592 0.96100003 8213022
0.022530636 -0.1660592 0.96100003 8344098
0.030597162 -0.16578105 0.96100008 7555881
-0.0016689113 -0.16355579 0.96100003 10184457
0.00083447155 -0.16355579 0.96100003 10315266
0.0041723419 -0.16355579 0.96100003 10380809
0.010848098 -0.16355579 0.96100003 10577927
0.013351481 -0.16355579 0.96100003 10774275
0.015854895 -0.16355579 0.96100003 10905604
0.019192781 -0.16355579 0.96100003 10906371
0.021696163 -0.16355579 0.96100003 10972165
0.030875318 -0.16355579 0.96100003 5781815
-0.0033378862 -0.16105241 0.96100003 5256250
-0.0016689113 -0.16105241 0.96100003 5256250
0.00083447155 -0.16105241 0.96100003 5321780
0.0041723419 -0.16105241 0.96100003 5321784
0.015854895 -0.16188689 0.96100003 5518643
0.019470939 -0.16133057 0.96100008 3744835
0.022808794 -0.16133057 0.96100008 7424290
0.031153476 -0.16133057 0.96100008 262757
-0.0033378862 -0.15771452 0.96100003 262757
-0.0016689113 -0.15771452 0.96100003 5321523
0.00083447155 -0.15771452 0.96100003 5387059
0.0041723419 -0.15771452 0.96100003 7949594
0.0066757407 -0.15771452 0.96100003 5387315
0.010013627 -0.15771452 0.96100003 262757
0.020027254 -0.15854901 0.96100003 10971137
0.023365108 -0.15771452 0.96100003 11299073
0.031153476 -0.15743637 0.96100008 4007492
-0.0033378862 -0.15437664 0.96100003 5321011
-0.0016689113 -0.15437664 0.96100003 5386547
0.00083447155 -0.15437664 0.96100003 7948826
0.0041723419 -0.15437664 0.96100003 8014362
0.0066757407 -0.15437664 0.96100003 5452851
0.010848098 -0.15437664 0.96100003 2890572
0.013351481 -0.15437664 0.96100003 11036673
0.020027254 -0.15521112 0.96100003 11364609
0.022808794 -0.1546548 0.96100008 11495681
0.030040847 -0.15437664 0.96100003 5978166
0.00083447155 -0.15103878 0.96100003 8080154
0.0041723419 -0.15103878 0.96100003 8145690
0.0075102123 -0.15103878 0.96100003 8342554
0.010848098 -0.15103878 0.96100003 5649715
0.013351481 -0.15103878 0.96100003 5781043
0.015020424 -0.15103878 0.96100003 262757
0.018358309 -0.1502043 0.96100003 262757
0.022808794 -0.15076062 0.96100008 8014627
0.026702994 -0.1502043 0.96100003 262757
0.028371936 -0.15103878 0.96100003 12022029
0.030040847 -0.15187326 0.96100003 11955729
0.0016689431 -0.14853534 0.96100003 10970881
0.0041723419 -0.14853534 0.96100003 11101953
0.0075102123 -0.14853534 0.96100003 11364354
0.010848098 -0.14853534 0.96100003 11496197
0.013351481 -0.14853534 0.96100003 11693575
0.015020424 -0.14853534 0.96100003 262757
0.022530636 -0.14853534 0.96100003 6176051
0.026702994 -0.14853534 0.96100003 12284929
0.028371936 -0.14853534 0.96100003 12285188
0.0016689431 -0.14686643 0.96100003 11167489
0.0041723419 -0.14686643 0.96100003 5846835
0.0077883694 -0.14631012 0.96100008 7883043
0.010013627 -0.14686643 0.96100003 262757
0.013351481 -0.14686643 0.96100003 262757
0.015854895 -0.14686643 0.96100003 12089608
0.019192781 -0.14686643 0.96100003 6307123
0.022530636 -0.14686643 0.96100003 6307123
0.025868524 -0.14603195 0.96100003 262757
0.013379267 -0.17727549 0.96300006 10512898
0.015051684 -0.17727549 0.96300006 262757
0.019232724 -0.17727549 0.96300006 5519155
0.023413735 -0.17727549 0.96300006 11039490
0.013379267 -0.17560305 0.96300006 10644483
0.019232724 -0.17560305 0.96300006 5584947
0.023413735 -0.17560305 0.96300006 262757
0.02508615 -0.17560305 0.96300006 11235073
0.00055747217 -0.17281571 0.96300006 6899498
0.0041810251 -0.17225823 0.96300006 5322044
0.0075258417 -0.17393063 0.96300006 10447365
0.010870675 -0.17225823 0.96300006 262757
0.013379267 -0.17393063 0.96300006 10710531
0.015609156 -0.17337316 0.96300006 3745356
0.019232724 -0.17393063 0.96300006 5650739
0.022577528 -0.17393063 0.96300006 5716531
0.026758566 -0.17393063 0.96300006 262757
0.028430983 -0.17393063 0.96300006 11432962
0.030939575 -0.17225823 0.96300006 5848115
0.033448201 -0.17225823 0.96300006 262757
-0.0016723846 -0.16891341 0.96300006 10251013
0.00055747217 -0.17002836 0.96300006 3613767
0.010870675 -0.16891341 0.96300006 262757
0.015051684 -0.16891341 0.96300006 262757
0.031775784 -0.16974962 0.96300006 11433484
0.033448201 -0.16974962 0.96300006 262757
-0.0033448329 -0.1664048 0.96300006 262757
-0.0016723846 -0.1664048 0.96300006 10250754
-0 -0.16556861 0.96300006 262757
0.031775784 -0.16724099 0.96300006 262757
0.034005672 -0.16612607 0.96300006 7622439
-0.004459756 -0.16333872 0.96300006 10185235
0.033448201 -0.16305998 0.96300006 5782325
-0.0050172172 -0.16055135 0.96300006 10315534
0.033448201 -0.16055135 0.96300006 11432197
-0.0050172172 -0.15804276 0.96300006 10314758
0.033448201 -0.15804276 0.96300006 262757
-0.0050172172 -0.15469794 0.96300006 5255731
0.031775784 -0.15469794 0.96300006 5978165
0.033448201 -0.15469794 0.96300006 5978164
-0.0033448329 -0.15135312 0.96300006 5321011
-0.0016723846 -0.15135312 0.96300006 10575873
0.031218313 -0.15107438 0.96300006 4138567
-0.0016723846 -0.14884448 0.96300006 10707457
-0 -0.14800829 0.96300006 262757
0.011706883 -0.14717208 0.96300006 262757
0.028430983 -0.14717208 0.96300006 262757
0.030660842 -0.14828703 0.96300006 4269892
0.0050172172 -0.14549966 0.96300006 11693825
0.0066896337 -0.14549966 0.96300006 262757
0.010870675 -0.14549966 0.96300006 262757
0.013379267 -0.14549966 0.96300006 12154628
0.015887892 -0.14549966 0.96300006 6307131
0.019232724 -0.14549966 0.96300006 6372660
0.022577528 -0.14549966 0.96300006 6438196
0.028430983 -0.14549966 0.96300006 12678407
0.0083620502 -0.14382727 0.96300006 12219907
0.010870675 -0.14382727 0.96300006 262757
0.015887892 -0.14382727 0.96300006 6372161
0.019232724 -0.14382727 0.96300006 6503990
0.02508615 -0.14382727 0.96300006 262757
0.013420948 -0.181183 0.96600002 8537858
0.015098575 -0.181183 0.96600002 8801538
0.018453827 -0.181183 0.96600002 9393409
-0.0075493027 -0.17782775 0.96600002 5064046
-0.0050328472 -0.17782775 0.96600002 8874046
0.0078288913 -0.17838696 0.96600002 3154502
0.011184145 -0.17838696 0.96600002 262757
0.013420948 -0.17950535 0.96600002 9528578
0.016216993 -0.17894614 0.96600002 6899243
0.019292641 -0.17950535 0.96600002 262757
0.021809049 -0.17866655 0.96600002 262757
0.025723509 -0.17838696 0.96600002 262757
0.028519554 -0.17782775 0.96600002 11236874
-0.010904524 -0.17615011 0.96600002 11643824
-0.0083881002 -0.17615011 0.96600002 262757
-0.0033552528 -0.17447247 0.96600002 262757
-0.0016775945 -0.17447247 0.96600002 10053643
0.0011184176 -0.17559092 0.96600002 3548230
0.0041940501 -0.1753113 0.96600002 5190963
0.0075492868 -0.17615011 0.96600002 5321523
0.01090454 -0.17531128 0.96600002 2825036
0.015937388 -0.17615011 0.96600002 5453644
0.021809049 -0.17615011 0.96600002 262757
0.026841927 -0.17615011 0.96600002 262757
0.028519554 -0.17615011 0.96600002 11301634
0.031035963 -0.17447247 0.96600002 5979446
0.034391217 -0.17447247 0.96600002 262757
0.036907654 -0.1753113 0.96600002 6573905
-0.0041940501 -0.17195605 0.96600002 7490851
-0.0016775945 -0.17195605 0.96600002 10185226
0.035230029 -0.17195605 0.96600002 11695885
0.037466854 -0.17167644 0.96600002 262757
-0.0041940501 -0.16943963 0.96600002 10120200
0.035230029 -0.16943963 0.96600002 11630870
0.037746452 -0.16943963 0.96600002 11303190
0.040262878 -0.16943963 0.96600002 12617473
-0.0050328472 -0.1669232 0.96600002 5191480
0.035230029 -0.16776198 0.96600002 262757
0.037746452 -0.1669232 0.96600002 3022926
-0.0075493027 -0.16356796 0.96600002 2759759
0.035230029 -0.16356796 0.96600002 5782326
0.037466854 -0.16384757 0.96600002 262757
-0.0075493027 -0.16021273 0.96600002 2693967
0.035230029 -0.16021273 0.96600002 5847349
0.036907654 -0.16021273 0.96600002 5913653
-0.0075493027 -0.15685749 0.96600002 5190200
0.035230029 -0.15685749 0.96600002 11693828
0.036907654 -0.15685749 0.96600002 5978420
-0.0075493027 -0.15434104 0.96600002 5124153
0.035230029 -0.15434104 0.96600002 11824899
0.036907654 -0.15434104 0.96600002 262757
-0.0075493027 -0.15182462 0.96600002 5189683
-0.0050328472 -0.15182462 0.96600002 5255475
0.034111612 -0.15210423 0.96600002 262757
0.036907654 -0.15266344 0.96600002 262757
-0.0067105056 -0.14763056 0.96600002 262757
-0.0041940501 -0.14846936 0.96600002 5321011
-0.0016775945 -0.14763056 0.96600002 262757
0.031874776 -0.14763056 0.96600002 12481547
0.033552401 -0.14846936 0.96600002 6306355
-0.015937403 -0.14427534 0.96600002 13622998
0.0008388132 -0.14595293 0.96600002 11233281
0.0039144512 -0.14483453 0.96600002 4007235
0.0067104739 -0.14427534 0.96600002 262757
0.013420948 -0.14427534 0.96600002 12416775
0.022647861 -0.14427534 0.96600002 6503733
0.026841927 -0.14427534 0.96600002 262757
0.028519554 -0.14427534 0.96600002 12941068
0.031035963 -0.14511414 0.96600002 9591076
0.033552401 -0.14595293 0.96600002 262757
0.0083881002 -0.14259769 0.96600002 12484101
0.01090454 -0.14259769 0.96600002 262757
0.013420948 -0.14259769 0.96600002 12812298
0.015937388 -0.14259769 0.96600002 6569544
0.019292641 -0.14259769 0.96600002 6569016
0.022647861 -0.14259769 0.96600002 6569271
0.026003115 -0.14259769 0.96600002 6635068
0.028519554 -0.14259769 0.96600002 13139473
0.013420948 -0.1409201 0.96600002 13271332
-0.0067313458 -0.18006282 0.96900004 9074529
-0.0042070751 -0.18006282 0.96900004 8283963
-0.0016828044 -0.18006282 0.96900004 7164187
0.00084141822 -0.18006282 0.96900004 7492869
0.0044875424 -0.18062377 0.96900004 5058088
0.0072922595 -0.18118471 0.96900004 5058861
0.010657932 -0.18118471 0.96900004 5516068
0.0168283 -0.18174566 0.96900004 9065217
0.020193972 -0.18174566 0.96900004 9524993
0.022718195 -0.18090424 0.96900004 4926515
0.026083868 -0.18090424 0.96900004 4926777
0.028608123 -0.18006282 0.96900004 10317843
0.035339437 -0.18006282 0.96900004 11839855
0.038144149 -0.18062377 0.96900004 8749203
-0.0033656729 -0.17838001 0.96900004 262757
-0.0016828044 -0.17838001 0.96900004 8609299
0.00084141822 -0.17838001 0.96900004 4926771
0.0042070751 -0.17838001 0.96900004 262757
0.031132346 -0.17838001 0.96900004 11171608
0.034498021 -0.17838001 0.96900004 6113879
0.037863679 -0.17838001 0.96900004 13614979
0.040387914 -0.17838001 0.96900004 14142913
-0.0072922809 -0.17557526 0.96900004 262757
-0.0044875424 -0.1761362 0.96900004 6242877
-0.0016828044 -0.17669715 0.96900004 9330955
0.031132346 -0.17669715 0.96900004 5848630
0.034498021 -0.17669715 0.96900004 262757
0.038705081 -0.17585573 0.96900004 7103603
0.040387914 -0.17585573 0.96900004 14274224
0.04207075 -0.1750143 0.96900004 14934205
-0.0075727478 -0.17249006 0.96900004 7425348
0.038705081 -0.1733315 0.96900004 12486971
0.040387914 -0.17249008 0.96900004 6970475
0.04207075 -0.17249008 0.96900004 14997143
-0.010657912 -0.16884395 0.96900004 3746129
-0.0075727478 -0.16912442 0.96900004 7424808
0.040387914 -0.16828299 0.96900004 12152582
0.04207075 -0.16996585 0.96900004 14004576
-0.010938389 -0.16660018 0.96900004 9988649
-0.0075727478 -0.16660018 0.96900004 10054421
0.040387914 -0.16660018 0.96900004 11695116
-0.010938389 -0.16407593 0.96900004 262757
0.038705081 -0.16323452 0.96900004 262757
0.040387914 -0.16407593 0.96900004 5781811
-0.010657912 -0.16099074 0.96900004 6636859
0.038705081 -0.16071028 0.96900004 262757
0.040387914 -0.16071028 0.96900004 5847091
-0.010096955 -0.15734461 0.96900004 5059392
0.038705081 -0.15734461 0.96900004 5978420
0.040387914 -0.15734461 0.96900004 5912373
-0.010938389 -0.15397896 0.96900004 4926788
0.038705081 -0.15397896 0.96900004 6043702
-0.010938389 -0.1514547 0.96900004 9328660
0.035339437 -0.1514547 0.96900004 262757
0.037863679 -0.1514547 0.96900004 12219907
-0.010657912 -0.14921091 0.96900004 3350083
-0.0078532156 -0.14921091 0.96900004 3547459
0.035339437 -0.14893045 0.96900004 6306611
0.037022274 -0.14977185 0.96900004 262757
-0.015986899 -0.14640619 0.96900004 6976168
-0.0067313458 -0.14640619 0.96900004 10444801
-0.0039266078 -0.14584526 0.96900004 7225890
-0.0016828044 -0.14640619 0.96900004 10970113
0.00084141822 -0.1447234 0.96900004 5912116
0.034498021 -0.14556479 0.96900004 6503741
-0.015986899 -0.14304054 0.96900004 7435429
0.00084141822 -0.14304054 0.96900004 5978165
0.0042070751 -0.14219913 0.96900004 9131807
0.0072922595 -0.14191866 0.96900004 4401989
0.010938404 -0.14135773 0.96900004 262757
0.015986882 -0.14135773 0.96900004 6766664
0.019352555 -0.14135773 0.96900004 6635078
0.022718195 -0.14135773 0.96900004 6635071
0.026083868 -0.14135773 0.96900004 262757
0.028608123 -0.14135773 0.96900004 262757
0.030851875 -0.1424796 0.96900004 8803114
0.033656601 -0.14304054 0.96900004 13139722
0.0075727319 -0.13967489 0.96900004 6570039
0.010938404 -0.13967489 0.96900004 262757
0.013462627 -0.13967489 0.96900004 13467966
0.015986882 -0.13967489 0.96900004 6965575
0.019352555 -0.13967489 0.96900004 6965844
0.026083868 -0.13967489 0.96900004 262757
0.028608123 -0.13967489 0.96900004 13666333
0.030290928 -0.13967489 0.96900004 13599508
0.026083868 -0.13799207 0.96900004 262757
0.028608123 -0.13799207 0.96900004 13927973
0.023632554 -0.18230835 0.97200006 9590787
0.027852669 -0.18230835 0.97200006 9395228
0.031532072 -0.18130802 0.97266674 6640455
0.034370951 -0.18199575 0.97333336 11047001
0.037213307 -0.18268347 0.97400004 12169628
-0.016052023 -0.17573676 0.97300005 14277851
-0.013532094 -0.17591737 0.97400004 14343384
-0.01098441 -0.17573676 0.97300005 13552828
-0.016036393 -0.17302409 0.97200006 11184832
-0.013504308 -0.17302409 0.97200006 14543328
-0.010972254 -0.17302409 0.97200006 3683702
-0.015755057 -0.16936669 0.97200006 10264761
-0.013504308 -0.16964802 0.97200006 13292495
-0.011816293 -0.17049205 0.97200006 262757
0.04332637 -0.16936669 0.97200006 9734296
-0.018568415 -0.16542791 0.97200006 15460067
-0.016036393 -0.16627194 0.97200006 11055293
-0.013504308 -0.16627194 0.97200006 11969689
0.042201001 -0.16627194 0.97200006 6111320
-0.015223646 -0.16323105 0.97400004 262757
-0.013504308 -0.16289586 0.97200006 10976375
0.042244419 -0.16306433 0.97300005 5714741
-0.01606939 -0.16069379 0.97400004 262757
-0.013504308 -0.16036382 0.97200006 10576479
-0.011816293 -0.16036382 0.97200006 262757
0.042201001 -0.16036382 0.97200006 11300123
-0.013504308 -0.15783176 0.97200006 10244431
-0.011816293 -0.15783176 0.97200006 262757
0.042287838 -0.15731077 0.97400004 11430943
-0.013532094 -0.15477347 0.97400004 9916487
0.040554635 -0.1546137 0.97300005 5978684
0.042287838 -0.15477347 0.97400004 5913403
-0.018568415 -0.15023555 0.97200006 15463387
-0.016036393 -0.15023555 0.97200006 262757
-0.013504308 -0.15107958 0.97200006 9783636
0.038824908 -0.15023555 0.97200006 262757
0.040596314 -0.15223619 0.97400004 11957514
-0.018568415 -0.14854753 0.97200006 15458271
-0.016036393 -0.14854753 0.97200006 12110020
-0.013504308 -0.14854753 0.97200006 10115181
-0.011816293 -0.14854753 0.97200006 262757
0.038020842 -0.14870036 0.97300005 6373176
-0.013504308 -0.14601545 0.97200006 10713489
-0.010972254 -0.14601545 0.97200006 262757
-0.0078775287 -0.14573412 0.97200006 6962978
-0.005064107 -0.14517145 0.97200006 10838785
-0.0016880144 -0.14517145 0.97200006 11166721
0.035448845 -0.14517145 0.97200006 262757
0.038019978 -0.1461648 0.97300005 262757
-0.015223646 -0.14208713 0.97400004 14935768
-0.013518201 -0.14278525 0.97300005 5853587
-0.010705958 -0.14311638 0.97333336 3348310
-0.0073252777 -0.14311638 0.97333336 7028514
-0.0042201001 -0.14263937 0.97200006 5583411
-0.0016880144 -0.14263937 0.97200006 5780275
0.00084402325 -0.14179537 0.97200006 6109494
0.032072756 -0.14179537 0.97200006 13335824
0.034910481 -0.14245529 0.97266674 8869675
0.0371751 -0.14278525 0.97300005 6636092
-0.013504308 -0.1401073 0.97200006 12899556
-0.010972254 -0.1392633 0.97200006 5918348
-0.0084575666 -0.13954985 0.97400004 4927324
-0.0039468687 -0.13983177 0.9740001 7553570
-0.0016914876 -0.1403956 0.97400004 11760641
0.00056383997 -0.13983177 0.9740001 8079653
0.0042218366 -0.1393345 0.97250009 9460516
0.007596177 -0.1384193 0.97200006 6635575
0.01097227 -0.1384193 0.97200006 6832707
0.013504308 -0.1384193 0.97200006 13599287
0.016036376 -0.1384193 0.97200006 262757
0.019412469 -0.1384193 0.97200006 7359576
0.022788532 -0.1392633 0.97200006 10513726
0.031510077 -0.13898197 0.97200006 9197363
0.034641296 -0.13940659 0.97300005 6898746
0.037213307 -0.13954985 0.97400004 6701879
-0.010128214 -0.13588724 0.97200006 6513826
-0.0076031396 -0.13602702 0.97300005 2693735
-0.0045106979 -0.13644877 0.9740001 11167002
0.0050745271 -0.13701259 0.97400004 12746246
0.0078937272 -0.13644877 0.9740001 8868902
0.010712927 -0.13644877 0.9740001 262757
0.013518201 -0.13602616 0.97300005 6963529
0.016069375 -0.13616684 0.97400004 7096138
0.019170493 -0.13588493 0.9740001 4927832
0.022553502 -0.13644877 0.9740001 4993621
0.025320601 -0.13588724 0.97200006 7489864
0.027852669 -0.13588724 0.97200006 10775352
0.03129299 -0.13616684 0.97400004 7030084
0.033830266 -0.13701259 0.97400004 13665833
-0.0076118233 -0.13362956 0.97400004 12035765
0.025372701 -0.13362956 0.97400004 14651684
0.027909979 -0.13362956 0.97400004 7294786
0.044114813 -0.16712725 0.97700006 262757
-0.019512312 -0.16373381 0.97700006 15328738
-0.016967235 -0.16373381 0.97700006 262757
0.044114813 -0.16373381 0.97700006 6639415
0.045811545 -0.16373381 0.97700006 7365745
-0.01922952 -0.16062316 0.97700012 15397085
-0.016118886 -0.159492 0.97700006 262757
0.04354924 -0.16005759 0.97700012 4335957
0.045811545 -0.16118874 0.97700006 262757
-0.019512312 -0.15694693 0.97700006 15396319
-0.016118886 -0.15694693 0.97700006 6118279
0.044114813 -0.15694693 0.97700006 6438734
0.046942677 -0.15666413 0.97700012 5000329
-0.018663932 -0.15440185 0.97700006 262757
-0.016118886 -0.15440185 0.97700006 6580375
0.044114813 -0.15440185 0.97700006 12746001
0.045811545 -0.15440185 0.97700006 262757
-0.018663932 -0.1527051 0.97700006 262757
-0.016118886 -0.1527051 0.97700006 6580634
0.040721353 -0.15100835 0.97700006 262757
0.043266453 -0.15185674 0.97700006 3416671
0.045811545 -0.15185672 0.97700006 14139530
0.040721353 -0.14931166 0.97700006 12153356
0.04354924 -0.14874609 0.97700012 12878432
0.039024625 -0.14422147 0.97700006 262757
-0.011877077 -0.14252478 0.97700006 9076101
-0.0084836176 -0.14252478 0.97700006 10246173
0.039024625 -0.14252478 0.97700006 13074984
-0.0067869197 -0.13997968 0.97700006 262757
-0.0050901575 -0.13913132 0.97700006 262757
-0.0016966974 -0.13913132 0.97700006 11956998
0.0016967299 -0.13913132 0.97700006 12415240
0.039024625 -0.14082803 0.97700006 12877894
-0.0033934598 -0.1357379 0.97700006 262757
-0.0016966974 -0.13658623 0.97700006 12284682
0.00056557666 -0.13686901 0.97700012 8343588
0.0042418088 -0.13658623 0.97700006 6503989
0.0067868871 -0.1357379 0.97700006 262757
0.011877077 -0.1357379 0.97700006 262757
0.020360693 -0.13743457 0.97700006 14324566
0.023754122 -0.1357379 0.97700006 14521134
0.034782834 -0.13658623 0.97700006 6898237
-0.0067869197 -0.13234444 0.97700006 262757
-0.0045245918 -0.13347559 0.97700012 7755603
-0 -0.13404115 0.97700006 262757
0.0050901575 -0.13404115 0.97700006 12678660
0.013573774 -0.13404115 0.97700006 13599785
0.01640166 -0.13347559 0.97700012 9395517
0.018663963 -0.13319279 0.97700006 7227719
0.023754122 -0.13234444 0.97700006 262757
0.02545085 -0.13234444 0.97700006 14586148
0.031389374 -0.13404115 0.97700006 13996307
0.03393447 -0.13404115 0.97700006 13864705
0.045952216 -0.16849142 0.98000002 15396022
0.045952216 -0.16678946 0.98000002 262757
0.045952216 -0.15998173 0.98000002 262757
0.045952216 -0.15827982 0.98000002 13877637
0.040846396 -0.14806819 0.98000002 12415000
0.042548336 -0.14806819 0.98000002 262757
0.040846396 -0.14551531 0.98000002 6570803
0.042548336 -0.14636628 0.98000002 12414550
0.0017019399 -0.13615468 0.98000002 12613639
0.0034038797 -0.13615468 0.98000002 262757
-0.0034038797 -0.13275082 0.98000002 262757
-0.0017019074 -0.13360178 0.98000002 12152860
0.0011346266 -0.13331813 0.98000002 262757
0.0039711823 -0.13331813 0.98000002 8474151
0.0076586967 -0.13445273 0.98000002 12875267
0.011062576 -0.13360178 0.98000002 3481937
0.013615455 -0.13275082 0.98000002 262757
0.015317394 -0.13275082 0.98000002 262757
0.020423213 -0.13360178 0.98000002 14258482
0.022692433 -0.13388543 0.98000002 4927568
0.028081911 -0.13275082 0.98000002 7359813
0.031485759 -0.13275082 0.98000002 7096912
0.025529001 -0.13104886 0.98000002 262757
0.027230941 -0.13104886 0.98000002 262757
0.0076821418 -0.13315721 0.98300004 6437430
