# .PCD v0.7 - Point Cloud Data file format
VERSION 0.7
FIELDS x y z rgba
SIZE 4 4 4 4
TYPE F F F U
COUNT 1 1 1 1
WIDTH 1081
HEIGHT 1
VIEWPOINT 0 0 0 1 0 0 0
POINTS 1081
DATA ascii
-0.085600294 -0.067026645 0.93000007 8602881
-0.083266214 -0.067098722 0.93100005 9785090
-0.080841839 -0.067099586 0.93100005 10967812
-0.1262487 -0.063124366 0.93200004 13333510
-0.12355109 -0.063663885 0.93200004 9850882
-0.121393 -0.064742923 0.93200004 8273153
-0.11883837 -0.064673454 0.93100005 8469249
-0.11547965 -0.064603984 0.93000007 8535553
-0.11224946 -0.064603984 0.93000007 8536834
-0.10901925 -0.064603984 0.93000007 8536833
-0.10659658 -0.064603984 0.93000007 8535809
-0.10417397 -0.064603984 0.93000007 8472577
-0.10094376 -0.064603984 0.93000007 8273923
-0.091253147 -0.064603984 0.93000007 10836996
-0.088022962 -0.064603984 0.93000007 8275203
-0.085600294 -0.064603984 0.93000007 8406022
-0.083266214 -0.064673454 0.93100005 8405512
-0.079849645 -0.064203404 0.93200004 9981704
-0.1262487 -0.061505776 0.93200004 7749894
-0.12463016 -0.061505776 0.93200004 7814408
-0.12167086 -0.06191216 0.93000007 7879431
-0.11870986 -0.062181346 0.93000007 11822600
-0.11547965 -0.062181346 0.93000007 10377735
-0.11224946 -0.062181346 0.93000007 10311945
-0.10982679 -0.062988907 0.93000007 7619073
-0.090445578 -0.062988907 0.93000007 13333510
-0.087753788 -0.062450536 0.93000007 11230981
-0.085600294 -0.062181346 0.93000007 6500368
-0.083177641 -0.062181346 0.93000007 11756041
-0.080273382 -0.06195616 0.9306668 10903054
-0.07769151 -0.061505776 0.93200004 6306579
-0.12705801 -0.059077933 0.93200004 8735499
-0.12490108 -0.058681965 0.93000007 13333510
-0.12220922 -0.059220344 0.93000007 9720841
-0.11951743 -0.059758715 0.93000007 4660251
-0.093675792 -0.058143593 0.93000007 13333510
-0.087215431 -0.059758715 0.93000007 13333510
-0.085600294 -0.058951154 0.93000007 8207379
-0.083446845 -0.059220344 0.93000007 6499100
-0.07967829 -0.059220344 0.93000007 6565148
-0.077096418 -0.058766484 0.93133342 1313051
-0.074454352 -0.05988723 0.93200004 3409962
-0.13001554 -0.055720955 0.93000007 6896920
-0.12759294 -0.055720955 0.93000007 13333510
-0.12597778 -0.055720955 0.93000007 7749379
-0.11467208 -0.054913394 0.93000007 13333510
-0.093675792 -0.055720955 0.93000007 7094538
-0.090983957 -0.055451773 0.93000007 9130246
-0.13243823 -0.05249076 0.93000007 1181743
-0.13028473 -0.052759945 0.93000007 1575982
-0.12167086 -0.052221574 0.93000007 6437918
-0.11914925 -0.052295666 0.93133342 9853194
-0.11560382 -0.05254633 0.93100011 5653283
-0.11259969 -0.052258622 0.9306668 6967848
-0.10901925 -0.051683199 0.93000007 5196604
-0.093675792 -0.051683199 0.93000007 5656913
-0.092060715 -0.05249076 0.93000007 4542025
-0.12490108 -0.049529754 0.93000007 6904609
-0.12207029 -0.04931353 0.93100011 6838573
-0.11923492 -0.049636267 0.93200004 4738892
-0.11545822 -0.049636267 0.93200004 13333510
-0.11237103 -0.04931353 0.93100005 7231045
-0.10901925 -0.049260564 0.93000007 5263175
-0.094483361 -0.050068121 0.93000007 5328465
-0.10554592 -0.14451671 0.93500006 13333510
-0.10311025 -0.14451671 0.93500006 12949852
-0.099862665 -0.14451671 0.93500006 12949853
-0.10635779 -0.14208105 0.93500006 12757637
-0.10311025 -0.14208105 0.93500006 12949593
-0.099862665 -0.14208105 0.93500006 12757640
-0.097427003 -0.14208105 0.93500006 12828084
-0.11204107 -0.13883348 0.93500006 12883802
-0.10960537 -0.13883348 0.93500006 12883800
-0.10635779 -0.13883348 0.93500006 12691841
-0.10392217 -0.13883348 0.93500006 12369064
-0.09905076 -0.13883348 0.93500006 12696753
-0.097427003 -0.13883348 0.93500006 13080667
-0.095803246 -0.13964538 0.93500006 13025707
-0.11204107 -0.13639782 0.93500006 12433834
-0.10960537 -0.13639782 0.93500006 12499368
-0.1063578 -0.13639782 0.93500006 12499368
-0.10392217 -0.13639782 0.93500006 12499876
-0.09905076 -0.13639782 0.93500006 12565676
-0.097427003 -0.13639782 0.93500006 12697000
-0.095803246 -0.13639782 0.93500006 12894373
-0.11204107 -0.13396212 0.93500006 12883545
-0.10960537 -0.13396212 0.93500006 13333510
-0.1063578 -0.13396214 0.93500006 12883800
-0.10338089 -0.13369152 0.93500012 12690285
-0.09959203 -0.1336915 0.93500012 13012028
-0.097427003 -0.13477401 0.93500006 13333510
-0.095803246 -0.13477401 0.93500006 13333510
-0.11204107 -0.13071457 0.93500006 13333510
-0.10960537 -0.13071457 0.93500006 12818267
-0.1063578 -0.13071457 0.93500006 12560773
-0.10311025 -0.13071457 0.93500006 12626306
-0.1001333 -0.1309852 0.93500012 12434099
-0.11204107 -0.12746701 0.93500006 12883549
-0.10933475 -0.12719637 0.93500012 12946241
-0.10662842 -0.12719637 0.93500012 12624761
-0.10067458 -0.12827888 0.93500006 12499642
-0.11258233 -0.12394881 0.93500012 13011518
-0.10960537 -0.12421944 0.93500006 12495236
-0.1063578 -0.12421943 0.93500006 12560773
-0.10392217 -0.12340756 0.93500006 13333510
-0.09093184 -0.12340756 0.93500006 13333510
-0.11528859 -0.12015995 0.93500006 12236718
-0.11258233 -0.12070122 0.93500012 12945982
-0.109876 -0.12124249 0.93500012 12302766
-0.10608717 -0.12124249 0.93500012 12690036
-0.10338089 -0.12070122 0.93500012 13011771
-0.099862665 -0.12015995 0.93500006 12818009
-0.097427003 -0.12015995 0.93500006 13333510
-0.091743752 -0.12097184 0.93500006 12752731
-0.089308091 -0.12097184 0.93500006 12303790
-0.11528859 -0.11853619 0.93500006 12236205
-0.11285295 -0.11853619 0.93500006 12752475
-0.10554592 -0.11853619 0.93500006 13333510
-0.10311025 -0.11853619 0.93500006 12302765
-0.099862665 -0.11853619 0.93500006 12302506
-0.097427003 -0.11853619 0.93500006 12368031
-0.094179422 -0.11853619 0.93500006 12302512
-0.091743752 -0.11853619 0.93500006 12752476
-0.11528859 -0.1161005 0.93500006 12170921
-0.11312358 -0.11637114 0.93500012 13333510
-0.10554592 -0.11528862 0.93500006 13333510
-0.10311025 -0.1161005 0.93500006 13075760
-0.099862665 -0.1161005 0.93500006 12818009
-0.097427003 -0.1161005 0.93500006 12302247
-0.094991334 -0.1161005 0.93500006 13333510
-0.092014395 -0.11637112 0.93500012 12558455
-0.089308091 -0.11691238 0.93500006 12236464
-0.11582987 -0.11258231 0.93500012 12945980
-0.11366484 -0.11285294 0.93500006 12040105
-0.11041725 -0.11204106 0.93500006 12170929
-0.1063578 -0.11204106 0.93500006 12817756
-0.10311025 -0.11285294 0.93500006 12818008
-0.099862665 -0.11285294 0.93500006 12560254
-0.097427003 -0.11285294 0.93500006 12236969
-0.094991341 -0.11285293 0.93500006 12752217
-0.091743752 -0.11285293 0.93500006 12428931
-0.11582987 -0.10933475 0.93500012 12880444
-0.11285295 -0.10960537 0.93500006 12363137
-0.10960537 -0.10960537 0.93500006 12686683
-0.10635779 -0.10960537 0.93500006 12428932
-0.10311025 -0.10960537 0.93500006 12494723
-0.1001333 -0.109876 0.93500012 12236711
-0.097427003 -0.11041725 0.93500006 12236713
-0.094991341 -0.10960537 0.93500006 12428674
-0.091743752 -0.10960537 0.93500006 12297598
-0.11853617 -0.10716969 0.93500006 11973804
-0.11637114 -0.10662844 0.93500012 12427123
-0.11312358 -0.10662844 0.93500012 12105386
-0.11041725 -0.10716969 0.93500006 12039858
-0.10554592 -0.10716969 0.93500006 12105646
-0.10311025 -0.10716969 0.93500006 12105903
-0.099862665 -0.10716969 0.93500006 12105640
-0.094991334 -0.10635781 0.93500006 12686424
-0.091743752 -0.10635781 0.93500006 12232317
-0.11853617 -0.10311025 0.93500006 11908008
-0.11691241 -0.10311025 0.93500006 12620888
-0.11366484 -0.10392213 0.93500006 13333510
-0.091743752 -0.10311025 0.93500006 12297342
-0.088496208 -0.10311025 0.93500006 12297344
-0.086060502 -0.10229838 0.93500006 11909549
-0.11853617 -0.099050812 0.93500006 13333510
-0.11691241 -0.099862687 0.93500006 12620888
-0.088496208 -0.099862687 0.93500006 12363141
-0.085248627 -0.099862687 0.93500006 12620891
-0.11853617 -0.097427003 0.93500006 11842979
-0.11691241 -0.097427003 0.93500006 11908775
-0.087684333 -0.097427003 0.93500006 12039601
-0.085248627 -0.097427003 0.93500006 11908525
-0.12015999 -0.094991311 0.93500006 13333510
-0.11853617 -0.094991311 0.93500006 12555092
-0.11691241 -0.094991311 0.93500006 13333510
-0.087684333 -0.094179437 0.93500006 13333510
-0.085248627 -0.094991311 0.93500006 12944430
-0.12070125 -0.091473125 0.93500012 12295020
-0.11853617 -0.091743752 0.93500006 11841699
-0.11637114 -0.092014372 0.93500012 12426610
-0.087684333 -0.092555627 0.93500006 11842976
-0.085248627 -0.091743752 0.93500006 12555349
-0.12070125 -0.088225566 0.93500012 12229488
-0.11853617 -0.089308068 0.93500006 11841701
-0.085248627 -0.088496193 0.93500006 12166016
-0.12015999 -0.085248627 0.93500006 12489051
-0.085248627 -0.085248627 0.93500006 12944174
-0.12015999 -0.082001068 0.93500006 12489298
-0.085248627 -0.08281295 0.93500006 11776679
-0.082812928 -0.081189185 0.93500006 11907471
-0.12178375 -0.079565383 0.93500006 11645599
-0.082812928 -0.079565383 0.93500006 11186295
-0.12178375 -0.077941626 0.93500006 11774064
-0.081730425 -0.077400357 0.93500012 12351256
-0.079565413 -0.076317817 0.93500006 9849346
-0.1239488 -0.074152797 0.93500012 13333510
-0.12178375 -0.073882163 0.93500006 11165443
-0.079565413 -0.073882163 0.93500006 11099143
-0.077941597 -0.073070258 0.93500006 13333510
-0.12340751 -0.070634574 0.93500006 13333510
-0.079565413 -0.069822691 0.93500006 13333510
-0.077129714 -0.070634574 0.93500006 12282118
-0.074694015 -0.070634574 0.93500006 8997122
-0.12421943 -0.067387007 0.93500006 9720066
-0.079565413 -0.067387007 0.93500006 10967812
-0.077129714 -0.067387007 0.93500006 10967812
-0.074694015 -0.068198889 0.93500006 13333510
-0.12746701 -0.064139441 0.93500006 10770947
-0.12503134 -0.064951323 0.93500006 8208129
-0.077129714 -0.064139441 0.93500006 9325059
-0.074694015 -0.064139441 0.93500006 10377988
-0.12827891 -0.060891874 0.93500006 9654536
-0.076317832 -0.060891874 0.93500006 9852685
-0.073611513 -0.061162502 0.93500012 8801552
-0.12990268 -0.05845619 0.93500006 4728858
-0.10983983 -0.18062548 0.93700004 12697009
-0.10577169 -0.18062548 0.93700004 12828597
-0.10983983 -0.17818461 0.93700004 13081182
-0.10577169 -0.17818461 0.93700004 13333510
-0.10983983 -0.17493011 0.93700004 12758151
-0.1065853 -0.1749301 0.93700004 13015136
-0.10333081 -0.17411646 0.93700004 13081182
-0.1065853 -0.17248924 0.93700004 12697269
-0.10333081 -0.17248924 0.93700004 12829111
-0.1065853 -0.17086196 0.93700004 13333510
-0.10251717 -0.17004833 0.93700004 13212256
-0.10902621 -0.16760744 0.93700004 12565429
-0.10739891 -0.16679381 0.93700004 13333510
-0.10251717 -0.16679381 0.93700004 13081181
-0.10739891 -0.16435292 0.93700004 12697266
-0.10333081 -0.15947114 0.93700004 13080925
-0.1155352 -0.15621664 0.93700004 12302767
-0.11282315 -0.15675907 0.93700004 12755832
-0.10983983 -0.15703027 0.93700004 12949341
-0.1065853 -0.15703027 0.93700004 12949598
-0.10333081 -0.15703027 0.93700004 12823431
-0.1003475 -0.15675907 0.93700004 13143359
-0.097092986 -0.15675907 0.93700004 12888449
-0.094380878 -0.15621664 0.93700004 9410721
-0.1155352 -0.15458941 0.93700004 12368304
-0.11309435 -0.15458941 0.93700004 12883802
-0.10983983 -0.15458941 0.93700004 12565683
-0.1065853 -0.15458941 0.93700004 12566455
-0.10333081 -0.15458941 0.93700004 12631980
-0.10007628 -0.15458941 0.93700004 12894387
-0.096821785 -0.15458941 0.93700004 12502193
-0.094380878 -0.15458941 0.93700004 9738643
-0.1155352 -0.15214851 0.93700004 12499380
-0.11309435 -0.1521485 0.93700004 13333510
-0.10983983 -0.1521485 0.93700004 12949592
-0.10658531 -0.15214851 0.93700004 12949853
-0.10333081 -0.15214851 0.93700004 13015387
-0.10007628 -0.15214851 0.93700004 13015647
-0.096821785 -0.1521485 0.93700004 12950620
-0.094380878 -0.15214851 0.93700004 10725318
-0.092753641 -0.15214851 0.93700004 13333510
-0.1155352 -0.148894 0.93700004 12434864
-0.11309435 -0.148894 0.93700004 12949338
-0.10983983 -0.148894 0.93700004 12691844
-0.1065853 -0.148894 0.93700004 12757640
-0.10333081 -0.148894 0.93700004 12757896
-0.10007628 -0.148894 0.93700004 12889479
-0.096821785 -0.148894 0.93700004 12889992
-0.094380878 -0.148894 0.93700004 12699078
-0.092753641 -0.14970762 0.93700004 12698042
-0.1171625 -0.14563946 0.93700004 13333510
-0.1155352 -0.14563946 0.93700004 12883546
-0.11309435 -0.14563946 0.93700004 12883802
-0.10983983 -0.14563946 0.93700004 12692101
-0.10685651 -0.14591068 0.93700004 12500407
-0.10333081 -0.1464531 0.93700004 12435378
-0.10007628 -0.1464531 0.93700004 12631729
-0.096821785 -0.14563946 0.93700004 12954503
-0.094380878 -0.14563946 0.93700004 12502459
-0.092753641 -0.14482583 0.93700004 13333510
-0.11797611 -0.14238495 0.93700004 12494722
-0.1155352 -0.14238495 0.93700004 12368306
-0.11309435 -0.14238495 0.93700004 12883803
-0.10983983 -0.14238495 0.93700004 12692101
-0.096008167 -0.14238495 0.93700004 13146718
-0.094380878 -0.14238495 0.93700004 12491871
-0.092211209 -0.14211375 0.93700004 12356408
-0.12123064 -0.13913044 0.93700004 12494206
-0.11797611 -0.13913044 0.93700004 12560002
-0.1155352 -0.13913044 0.93700004 12368047
-0.11390797 -0.13913044 0.93700004 12883804
-0.096008167 -0.13831681 0.93700004 13333510
-0.094380878 -0.13913044 0.93700004 11320479
-0.092753641 -0.13913044 0.93700004 11897927
-0.12123064 -0.13587594 0.93700004 12625535
-0.11797611 -0.13587594 0.93700004 12494466
-0.1155352 -0.13587594 0.93700004 12302508
-0.11390797 -0.13587594 0.93700004 12818009
-0.094380878 -0.13587594 0.93700004 10465960
-0.092211217 -0.13560472 0.93700004 11370031
-0.12123064 -0.13343507 0.93700004 12171179
-0.11797611 -0.13343507 0.93700004 12236719
-0.1155352 -0.13343507 0.93700004 12302510
-0.11390797 -0.13343507 0.93700004 12368300
-0.096821785 -0.13343507 0.93700004 12884057
-0.094380878 -0.13343507 0.93700004 13333510
-0.091940001 -0.13343507 0.93700004 9738887
-0.12095943 -0.13126539 0.93700004 12880446
-0.11797611 -0.13099417 0.93700004 12751963
-0.1155352 -0.13099417 0.93700004 12302257
-0.11390797 -0.13099417 0.93700004 13333510
-0.099262632 -0.13018055 0.93700004 13333510
-0.096821785 -0.13099417 0.93700004 12556125
-0.094380878 -0.13099417 0.93700004 11117439
-0.091940001 -0.13099417 0.93700004 13333510
-0.088685498 -0.13018055 0.93700004 9014633
-0.086244598 -0.13018055 0.93700004 6843183
-0.11797611 -0.12773965 0.93700004 12752218
-0.1155352 -0.12773965 0.93700004 12236975
-0.11390797 -0.12773965 0.93700004 12818011
-0.11065345 -0.12855327 0.93700004 12368314
-0.10577169 -0.12855327 0.93700004 12303028
-0.10333081 -0.12773965 0.93700004 12883805
-0.099805072 -0.12746845 0.93700004 12755836
-0.096821785 -0.12773965 0.93700004 12687452
-0.094380878 -0.12773965 0.93700004 11976623
-0.091940001 -0.12773965 0.93700004 12161874
-0.088685498 -0.12773965 0.93700004 11044422
-0.086244598 -0.12773965 0.93700004 8353352
-0.12041702 -0.12367153 0.93700004 13333510
-0.11797611 -0.12448515 0.93700004 12428675
-0.1155352 -0.12448515 0.93700004 12170926
-0.11390797 -0.12529877 0.93700004 12302255
-0.10305959 -0.12475636 0.93700004 12755576
-0.10007628 -0.12448515 0.93700004 12560519
-0.096821785 -0.12448515 0.93700004 12561029
-0.094380878 -0.12448515 0.93700004 12172458
-0.092211217 -0.12475636 0.93700004 12230774
-0.088685498 -0.12448515 0.93700004 11641210
-0.08543098 -0.12448515 0.93700004 11576945
-0.082990073 -0.12367153 0.93700004 13333510
-0.12041702 -0.12041698 0.93700004 13333510
-0.11797611 -0.12123062 0.93700004 12363394
-0.1155352 -0.12204426 0.93700004 12171183
-0.11390797 -0.12204426 0.93700004 12236719
-0.10251717 -0.12204426 0.93700004 13333510
-0.10007628 -0.12204426 0.93700004 12303277
-0.096550584 -0.12150183 0.93700004 13333510
-0.094380878 -0.12123062 0.93700004 12752735
-0.087871887 -0.12123062 0.93700004 12883801
-0.08543098 -0.12123062 0.93700004 12298888
-0.082990073 -0.12123062 0.93700004 11054753
-0.12041702 -0.1179761 0.93700004 12686423
-0.11797611 -0.1179761 0.93700004 12428672
-0.096008167 -0.11878974 0.93700004 12433831
-0.088414297 -0.11824732 0.93700004 12946238
-0.08543098 -0.1179761 0.93700004 12494725
-0.082990073 -0.1179761 0.93700004 12687453
-0.12041702 -0.11553523 0.93700004 12105127
-0.11797611 -0.11553523 0.93700004 12105638
-0.091126353 -0.11553523 0.93700004 13333510
-0.088685498 -0.11553523 0.93700004 12752219
-0.08543098 -0.11553523 0.93700004 12236723
-0.082990073 -0.11553523 0.93700004 12171442
-0.12095943 -0.11282313 0.93700004 12880187
-0.11824732 -0.11336555 0.93700004 12492658
-0.088685498 -0.11309434 0.93700004 12752216
-0.08543098 -0.11309434 0.93700004 12752216
-0.082990073 -0.11309434 0.93700004 12171435
-0.12123064 -0.10983983 0.93700004 12297346
-0.11824732 -0.11011104 0.93700004 11973805
-0.088685498 -0.10983983 0.93700004 12363649
-0.08543098 -0.10983983 0.93700004 12363394
-0.082990073 -0.10983983 0.93700004 12040105
-0.12367149 -0.10739893 0.93700004 13333510
-0.12123064 -0.10658532 0.93700004 12555608
-0.11878973 -0.10577171 0.93700004 11908264
-0.088685498 -0.10658532 0.93700004 12297856
-0.08543098 -0.10658532 0.93700004 12620886
-0.082990073 -0.10658532 0.93700004 11575965
-0.12367149 -0.10333081 0.93700004 12489810
-0.12123064 -0.10333081 0.93700004 12555349
-0.085159779 -0.10360201 0.93700004 12295537
-0.082176454 -0.10333081 0.93700004 11833198
-0.12448514 -0.1000763 0.93700004 12034167
-0.12123064 -0.1000763 0.93700004 12166266
-0.11878973 -0.10088991 0.93700004 13333510
-0.082176454 -0.1000763 0.93700004 12033146
-0.079735607 -0.1000763 0.93700004 11512223
-0.12448514 -0.096821763 0.93700004 12033656
-0.12150185 -0.097092979 0.93700004 11711646
-0.082176454 -0.096821755 0.93700004 12232070
-0.12448514 -0.094380893 0.93700004 11578015
-0.12204426 -0.094380893 0.93700004 11710623
-0.082176454 -0.094380893 0.93700004 11908525
-0.126926 -0.091126382 0.93700004 11250584
-0.12448514 -0.091940001 0.93700004 12357457
-0.12204426 -0.092753612 0.93700004 11710111
-0.082176454 -0.091940001 0.93700004 12620886
-0.079735607 -0.092753612 0.93700004 11777957
-0.12367149 -0.088685483 0.93700004 12423251
-0.12204426 -0.089499101 0.93700004 13333510
-0.082176454 -0.08868549 0.93700004 12297343
-0.12448514 -0.08543098 0.93700004 11901816
-0.12204426 -0.08543098 0.93700004 11644326
-0.082176454 -0.08543098 0.93700004 12166020
-0.079735607 -0.08543098 0.93700004 11645612
-0.12448514 -0.082176469 0.93700004 11836535
-0.12204426 -0.082176469 0.93700004 11579038
-0.081905246 -0.082447678 0.93700004 12230001
-0.079193175 -0.081905268 0.93700004 12164457
-0.12448514 -0.078921959 0.93700004 11968108
-0.081362836 -0.07973557 0.93700004 13333510
-0.078921959 -0.078921959 0.93700004 12812578
-0.076481074 -0.078108341 0.93700004 11110975
-0.074040167 -0.078108341 0.93700004 11499808
-0.126926 -0.076481059 0.93700004 10327885
-0.12448514 -0.076481059 0.93700004 11829022
-0.078108311 -0.076481059 0.93700004 9850369
-0.076481074 -0.076481059 0.93700004 9917185
-0.074040167 -0.076481059 0.93700004 9456385
-0.07159932 -0.076481059 0.93700004 6832900
-0.12773965 -0.074040189 0.93700004 12216324
-0.12529878 -0.073226549 0.93700004 8995073
-0.078108311 -0.07485383 0.93700004 13333510
-0.076481074 -0.074040189 0.93700004 11035141
-0.074040167 -0.074040189 0.93700004 13333510
-0.071056888 -0.073768973 0.93700004 8342548
-0.12773965 -0.070785657 0.93700004 12216324
-0.12529878 -0.070785657 0.93700004 8866049
-0.073226549 -0.070785657 0.93700004 11231496
-0.071056888 -0.071056865 0.93700004 9591304
-0.12773965 -0.067531146 0.93700004 10968067
-0.073768966 -0.067259945 0.93700004 10113795
-0.07159932 -0.067531146 0.93700004 8668418
-0.13018054 -0.064276636 0.93700004 13333510
-0.1285533 -0.065090254 0.93700004 8273665
-0.073226549 -0.064276636 0.93700004 10836484
-0.07159932 -0.064276636 0.93700004 10902020
-0.13072295 -0.060750924 0.93700004 11427846
-0.07159932 -0.061022125 0.93700004 5185824
-0.13180777 -0.058581233 0.93700004 5254938
-0.12080257 -0.18120378 0.94000006 12170918
-0.11835384 -0.18120378 0.94000006 12368035
-0.11508889 -0.18120378 0.94000006 12368042
-0.11264022 -0.18120378 0.94000006 12565166
-0.10774278 -0.18120378 0.94000006 12762804
-0.10366164 -0.18120378 0.94000006 12894647
-0.10039669 -0.18120378 0.94000006 12829369
-0.097131781 -0.18120378 0.94000006 12764347
-0.094683059 -0.18120378 0.94000006 12961210
-0.12080257 -0.1787551 0.94000006 12686678
-0.11835384 -0.17875512 0.94000006 13333510
-0.11508889 -0.17875512 0.94000006 12817750
-0.11264022 -0.1787551 0.94000006 12500399
-0.10774278 -0.1787551 0.94000006 13333510
-0.10366164 -0.17875512 0.94000006 13081438
-0.10039669 -0.1787551 0.94000006 13146977
-0.097131781 -0.17875512 0.94000006 13147231
-0.094683059 -0.17793886 0.94000006 13092283
-0.12080257 -0.17549017 0.94000006 12686678
-0.11835384 -0.17549017 0.94000006 12751957
-0.11508889 -0.17549019 0.94000006 12626052
-0.11264022 -0.17549017 0.94000006 12500145
-0.10366164 -0.17630643 0.94000006 12829367
-0.10039669 -0.17549017 0.94000006 13020813
-0.097131781 -0.17549017 0.94000006 13021321
-0.09386684 -0.17549019 0.94000006 13152396
-0.09141811 -0.17467393 0.94000006 13333510
-0.089785673 -0.17467393 0.94000006 13333510
-0.12161878 -0.17222524 0.94000006 12752470
-0.11835384 -0.17222525 0.94000006 12560514
-0.11508889 -0.17222525 0.94000006 12691334
-0.11182398 -0.17222525 0.94000006 12823175
-0.10937528 -0.17222525 0.94000006 12566195
-0.1044779 -0.17140901 0.94000006 13333510
-0.10039669 -0.17222525 0.94000006 13021073
-0.097131781 -0.17222525 0.94000006 12955019
-0.09386684 -0.17222525 0.94000006 13087110
-0.09141811 -0.17222525 0.94000006 13028270
-0.089785673 -0.17222525 0.94000006 13344348
-0.12406744 -0.16977651 0.94000006 12105892
-0.12161878 -0.16896029 0.94000006 12752470
-0.11835384 -0.1689603 0.94000006 12625796
-0.11508889 -0.16896029 0.94000006 12692101
-0.11182398 -0.16896029 0.94000006 12884060
-0.10937528 -0.16977651 0.94000006 12500148
-0.10665449 -0.16923237 0.94000006 12887418
-0.1044779 -0.1689603 0.94000006 13081181
-0.10039669 -0.16896029 0.94000006 13015903
-0.097131781 -0.16896029 0.94000006 12554578
-0.09386684 -0.1689603 0.94000006 11966059
-0.09141811 -0.1689603 0.94000006 11902096
-0.089785673 -0.16977651 0.94000006 12102303
-0.12161878 -0.1665116 0.94000006 12302504
-0.11835384 -0.1665116 0.94000006 12367534
-0.11508889 -0.1665116 0.94000006 12883802
-0.11182398 -0.1665116 0.94000006 12565170
-0.10937528 -0.1665116 0.94000006 12630963
-0.10611033 -0.1665116 0.94000006 13333510
-0.1044779 -0.1665116 0.94000006 12894641
-0.10039669 -0.1665116 0.94000006 12950105
-0.097131781 -0.1665116 0.94000006 10858653
-0.09386684 -0.1665116 0.94000006 10460825
-0.09141811 -0.1665116 0.94000006 11708325
-0.12406744 -0.16487914 0.94000006 13333510
-0.12161879 -0.16406289 0.94000006 13009967
-0.11835384 -0.16406289 0.94000006 12817753
-0.11508889 -0.16406289 0.94000006 12625797
-0.11182398 -0.16406289 0.94000006 13141297
-0.10937528 -0.16406289 0.94000006 12631218
-0.10665449 -0.16379081 0.94000006 13143102
-0.10366164 -0.16406289 0.94000006 13141552
-0.10039669 -0.16406289 0.94000006 13141810
-0.097131781 -0.16406289 0.94000006 12950621
-0.09386684 -0.16406289 0.94000006 12951387
-0.09141811 -0.16406289 0.94000006 11519936
-0.12161878 -0.16079798 0.94000006 12428676
-0.11835384 -0.16079798 0.94000006 12625539
-0.11508889 -0.16079798 0.94000006 12757125
-0.11182398 -0.16079798 0.94000006 12757383
-0.10937528 -0.16079798 0.94000006 12631220
-0.10692656 -0.16079798 0.94000006 13015134
-0.10366164 -0.16161422 0.94000006 12762806
-0.10039669 -0.16079798 0.94000006 12889736
-0.097131781 -0.16079798 0.94000006 13021576
-0.09386684 -0.16079798 0.94000006 12759943
-0.09141811 -0.16079798 0.94000006 11120267
-0.088153228 -0.16079798 0.94000006 10248004
-0.12134671 -0.15726095 0.94000006 12558451
-0.11835384 -0.15753303 0.94000006 12560258
-0.11508889 -0.15834928 0.94000006 12433839
-0.099580444 -0.15834928 0.94000006 13333510
-0.096315563 -0.15834928 0.94000006 13333510
-0.093594775 -0.15780511 0.94000006 11043674
-0.09141811 -0.15753303 0.94000006 11104259
-0.089241527 -0.15726095 0.94000006 11825681
-0.12161878 -0.15426812 0.94000006 12752217
-0.11835384 -0.15426812 0.94000006 12625797
-0.093050621 -0.15508436 0.94000006 7041373
-0.09141811 -0.15426812 0.94000006 13333510
-0.088969454 -0.15426812 0.94000006 10912520
-0.086520724 -0.15345186 0.94000006 7897928
-0.12406744 -0.15018693 0.94000006 13333510
-0.12161878 -0.15100318 0.94000006 12752218
-0.11835384 -0.15100318 0.94000006 12560009
-0.09141811 -0.15100318 0.94000006 12752983
-0.088969454 -0.15100317 0.94000006 11311458
-0.086520724 -0.15100318 0.94000006 10979395
-0.12406744 -0.14855449 0.94000006 12170674
-0.12161878 -0.14855449 0.94000006 12301738
-0.11835384 -0.14855449 0.94000006 12301998
-0.093050621 -0.14855449 0.94000006 13333510
-0.09141811 -0.14855449 0.94000006 13333510
-0.088969454 -0.14855449 0.94000006 11638103
-0.086520724 -0.14855449 0.94000006 8681279
-0.12461162 -0.14583369 0.94000006 12880188
-0.12161878 -0.14610577 0.94000006 13075502
-0.11917005 -0.14610577 0.94000006 12236713
-0.093050621 -0.14692201 0.94000006 12633780
-0.09141811 -0.14610577 0.94000006 11899224
-0.088969454 -0.14610577 0.94000006 10712378
-0.085976586 -0.14583367 0.94000006 11500049
-0.1248837 -0.14284083 0.94000006 13009966
-0.12161879 -0.14284083 0.94000006 12429183
-0.09141811 -0.14365707 0.94000006 7763588
-0.088969454 -0.14284083 0.94000006 9596706
-0.085976586 -0.14256875 0.94000006 9664536
-0.12787656 -0.13984798 0.94000006 13333510
-0.1248837 -0.1395759 0.94000006 12363133
-0.09141811 -0.1395759 0.94000006 10909239
-0.088969447 -0.13957588 0.94000006 10056477
-0.085704505 -0.13957588 0.94000006 8876562
-0.083255783 -0.13875964 0.94000006 6582033
-0.12733239 -0.13549472 0.94000006 12039833
-0.1248837 -0.13631096 0.94000006 12752212
-0.09141811 -0.13712722 0.94000006 7433056
-0.088969454 -0.13631096 0.94000006 8877105
-0.085704505 -0.13631096 0.94000006 8549398
-0.083255783 -0.13631096 0.94000006 6318374
-0.12733239 -0.13304603 0.94000006 12686420
-0.1248837 -0.13304605 0.94000006 12297344
-0.088969454 -0.13304603 0.94000006 9274694
-0.085704505 -0.13304605 0.94000006 8811803
-0.083255783 -0.13304603 0.94000006 7174174
-0.12733239 -0.13059735 0.94000006 11908522
-0.1248837 -0.13059735 0.94000006 11908523
-0.122435 -0.13059735 0.94000006 12105388
-0.084888279 -0.13059735 0.94000006 7108099
-0.083255783 -0.13059735 0.94000006 7371535
-0.12733239 -0.12814865 0.94000006 11842728
-0.1248837 -0.12814865 0.94000006 13333510
-0.12161879 -0.12814865 0.94000006 12363138
-0.084888279 -0.12814865 0.94000006 13333510
-0.083255783 -0.12814865 0.94000006 10057221
-0.12733239 -0.12488371 0.94000006 12621143
-0.1248837 -0.12488371 0.94000006 12621146
-0.12189087 -0.12515579 0.94000006 12039596
-0.082167484 -0.12515579 0.94000006 9139737
-0.12733239 -0.122435 0.94000006 11909034
-0.1248837 -0.12161876 0.94000006 12620887
-0.12189087 -0.12189084 0.94000006 11974055
-0.081623331 -0.12161876 0.94000006 11569219
-0.079990894 -0.12080252 0.94000006 12039836
-0.1248837 -0.11835383 0.94000006 12620629
-0.122435 -0.11835383 0.94000006 12104613
-0.081623331 -0.11835383 0.94000006 12687455
-0.079446726 -0.11808175 0.94000006 12625020
-0.12733239 -0.11508889 0.94000006 12554587
-0.1248837 -0.11508889 0.94000006 12686420
-0.122435 -0.11508889 0.94000006 12039588
-0.081623331 -0.11508889 0.94000006 13333510
-0.079174638 -0.11508889 0.94000006 12752731
-0.12787656 -0.1115519 0.94000006 12748605
-0.1248837 -0.11182397 0.94000006 12232061
-0.081623331 -0.11182397 0.94000006 12752471
-0.079174638 -0.11182397 0.94000006 12752472
-0.1248837 -0.10937528 0.94000006 11711649
-0.081623331 -0.10937528 0.94000006 13333510
-0.079174638 -0.10937528 0.94000006 11974563
-0.12814865 -0.10692658 0.94000006 13333510
-0.12515579 -0.1066545 0.94000006 12164460
-0.081623331 -0.10692658 0.94000006 12489042
-0.079174638 -0.10692657 0.94000006 12943914
-0.12814865 -0.10366164 0.94000006 12357457
-0.12569995 -0.10366164 0.94000006 11579292
-0.079174638 -0.10366164 0.94000006 11636578
-0.076725945 -0.10284542 0.94000006 11442302
-0.12814865 -0.10039672 0.94000006 12291919
-0.078358389 -0.10039672 0.94000006 12355917
-0.076725945 -0.10039672 0.94000006 12355404
-0.13059734 -0.097948 0.94000006 11118739
-0.12814865 -0.097131759 0.94000006 12812587
-0.079174638 -0.097131751 0.94000006 12297345
-0.076725945 -0.097131759 0.94000006 12817748
-0.12814865 -0.093866833 0.94000006 12291151
-0.078902557 -0.094138913 0.94000006 12230257
-0.076725945 -0.093050584 0.94000006 13333510
-0.13059734 -0.09141814 0.94000006 13333510
-0.1289649 -0.09141814 0.94000006 11118229
-0.079174638 -0.09141814 0.94000006 12555350
-0.13059734 -0.088153213 0.94000006 13333510
-0.12814865 -0.088969439 0.94000006 13333510
-0.12569995 -0.088969439 0.94000006 12422993
-0.079174638 -0.088969439 0.94000006 12100480
-0.13059734 -0.085704505 0.94000006 10921098
-0.12814865 -0.085704505 0.94000006 12291405
-0.078358389 -0.085704505 0.94000006 12489559
-0.076725945 -0.084888279 0.94000006 13333510
-0.13222978 -0.082439572 0.94000006 11962954
-0.13059734 -0.082439572 0.94000006 12094281
-0.12814865 -0.082439572 0.94000006 12225870
-0.078358389 -0.083255798 0.94000006 11580070
-0.075909689 -0.082439572 0.94000006 12424273
-0.073461004 -0.081623346 0.94000006 13333510
-0.13059734 -0.079174638 0.94000006 12094537
-0.12814865 -0.079174638 0.94000006 12291919
-0.075909689 -0.079990864 0.94000006 11188352
-0.073461004 -0.079990864 0.94000006 10860914
-0.071012311 -0.079174638 0.94000006 11695644
-0.068563618 -0.078358419 0.94000006 5395244
-0.13059734 -0.075909711 0.94000006 9996887
-0.1289649 -0.07672593 0.94000006 10329696
-0.070196055 -0.075909711 0.94000006 13333510
-0.068563618 -0.075909711 0.94000006 4470816
-0.13059734 -0.073461004 0.94000006 13333510
-0.068563618 -0.073461004 0.94000006 3546122
-0.13059734 -0.071012288 0.94000006 8405761
-0.070196055 -0.07019607 0.94000006 13333510
-0.068563618 -0.071012288 0.94000006 4072735
-0.13059734 -0.067747369 0.94000006 8340481
-0.070196055 -0.067747369 0.94000006 11099657
-0.068563618 -0.067747369 0.94000006 13333510
-0.13222978 -0.064482436 0.94000006 10639619
-0.070196055 -0.064482436 0.94000006 10902792
-0.068563618 -0.065298654 0.94000006 8668946
-0.13222978 -0.06203372 0.94000006 7617028
-0.070196055 -0.061217502 0.94000006 10049804
-0.068563618 -0.061217502 0.94000006 5449226
-0.093248591 -0.18158934 0.94200003 13223610
-0.091612615 -0.18158934 0.94200003 12633019
-0.1226955 -0.17913544 0.94200003 12686421
-0.093793899 -0.17940812 0.94200009 13209410
-0.091612615 -0.17913544 0.94200003 13158076
-0.089431398 -0.17886278 0.94200009 13333510
-0.1226955 -0.17586356 0.94200003 12686679
-0.091612615 -0.17668155 0.94200003 13289402
-0.088886097 -0.17613623 0.94200009 13282177
-0.086704805 -0.17504558 0.94200003 13158073
-0.12433142 -0.17259169 0.94200003 12686678
-0.088340789 -0.17259169 0.94200003 13333510
-0.086704805 -0.17259169 0.94200003 13092532
-0.12542208 -0.16904712 0.94200009 12880186
-0.088886097 -0.16904712 0.94200009 13011259
-0.086704805 -0.17013775 0.94200003 12896691
-0.12760331 -0.16522996 0.94200003 12104863
-0.12514941 -0.16604792 0.94200003 12752215
-0.089158744 -0.16604792 0.94200003 13146950
-0.12433142 -0.16359399 0.94200003 12105392
-0.089158744 -0.16359399 0.94200003 13333510
-0.086704805 -0.16359399 0.94200003 3609417
-0.12433142 -0.16114008 0.94200003 13333510
-0.089976706 -0.16114008 0.94200003 11571794
-0.086704805 -0.16114008 0.94200003 5193804
-0.12487675 -0.15759556 0.94200009 12492914
-0.1226955 -0.15868619 0.94200003 12171178
-0.088340789 -0.15868619 0.94200003 8224590
-0.086704805 -0.15786821 0.94200003 8491605
-0.12433142 -0.15459633 0.94200003 12105387
-0.085614204 -0.15486899 0.94200009 10184209
-0.12760331 -0.15132447 0.94200003 12105632
-0.12542209 -0.15159713 0.94200009 12492913
-0.085068896 -0.15132447 0.94200003 11176007
-0.08343292 -0.15050648 0.94200003 13333510
-0.12923929 -0.14887057 0.94200003 12171937
-0.12760331 -0.14805259 0.94200003 12105384
-0.1259674 -0.14805259 0.94200003 13333510
-0.085068896 -0.14805259 0.94200003 10844164
-0.082614958 -0.14805259 0.94200003 10581784
-0.12923929 -0.14559864 0.94200003 12170651
-0.12760331 -0.14559864 0.94200003 12105131
-0.082614958 -0.14559864 0.94200003 6118922
-0.12923929 -0.14232676 0.94200003 12171430
-0.12760331 -0.14314474 0.94200003 12686684
-0.085068896 -0.14396273 0.94200003 7441183
-0.082614958 -0.14314474 0.94200003 13333510
-0.080161087 -0.14232676 0.94200003 6713608
-0.13032991 -0.13960022 0.94200009 12617018
-0.082342312 -0.14014554 0.94200009 9335567
-0.079615764 -0.13960022 0.94200009 9664781
-0.1297846 -0.13632834 0.94200009 12880440
-0.12760331 -0.13741897 0.94200003 12105627
-0.081797004 -0.136601 0.94200003 10055449
-0.079615764 -0.13687366 0.94200009 7566876
-0.13005725 -0.13332912 0.94200003 12489038
-0.081797004 -0.13332912 0.94200003 10317596
-0.080161087 -0.13332912 0.94200003 7503394
-0.1297846 -0.13032991 0.94200009 12880183
-0.081797004 -0.13005725 0.94200003 13333510
-0.080161087 -0.13087521 0.94200003 7372575
-0.12923929 -0.12760335 0.94200003 13333510
-0.081797004 -0.12760335 0.94200003 13333510
-0.1297846 -0.12487678 0.94200009 12353834
-0.079615764 -0.12487678 0.94200009 13333510
-0.1297846 -0.12215018 0.94200009 11833688
-0.12760331 -0.12105954 0.94200003 13333510
-0.079070434 -0.12215018 0.94200009 10915157
-0.13005725 -0.11860564 0.94200003 13333510
-0.12760331 -0.11860564 0.94200003 11841959
-0.078525111 -0.11942363 0.94200003 12107708
-0.076343872 -0.11833298 0.94200009 12881218
-0.13005725 -0.11533377 0.94200003 11962700
-0.076071203 -0.11533377 0.94200003 12429446
-0.13032991 -0.11233455 0.94200009 11571037
-0.076071203 -0.11206189 0.94200003 12752728
-0.13005725 -0.109608 0.94200003 10524784
-0.12760331 -0.109608 0.94200003 11580323
-0.076071203 -0.109608 0.94200003 12687190
-0.1308752 -0.10715407 0.94200003 9537689
-0.076343864 -0.10742673 0.94200009 12292957
-0.1308752 -0.10306425 0.94200003 10922894
-0.075798541 -0.10415486 0.94200009 12681262
-0.13251111 -0.10061032 0.94200003 12095048
-0.1308752 -0.10061032 0.94200003 13333510
-0.075253218 -0.10061032 0.94200003 12289611
-0.13251111 -0.097338423 0.94200003 12094796
-0.1308752 -0.096520446 0.94200003 13333510
-0.075253218 -0.097338423 0.94200003 12686674
-0.13251111 -0.093248561 0.94200003 10857112
-0.1308752 -0.094066545 0.94200003 12226380
-0.075798541 -0.094339214 0.94200009 11900781
-0.13251111 -0.091612652 0.94200003 10723990
-0.076889195 -0.091612652 0.94200003 11580070
-0.13251111 -0.089158729 0.94200003 12094025
-0.1308752 -0.089976691 0.94200003 13333510
-0.076071203 -0.089158736 0.94200003 12878639
-0.13251111 -0.085886851 0.94200003 13333510
-0.075798541 -0.086159512 0.94200009 12230263
-0.073617302 -0.085068896 0.94200003 11974574
-0.071981385 -0.085068896 0.94200003 13333510
-0.13414711 -0.082614973 0.94200003 13333510
-0.073617302 -0.083432935 0.94200003 11977130
-0.071436062 -0.082342327 0.94200009 13333510
-0.13305645 -0.079615749 0.94200009 11505760
-0.13251111 -0.076071218 0.94200003 11832385
-0.13332911 -0.073617302 0.94200003 9062672
-0.13332911 -0.071163386 0.94200003 11953673
-0.13305645 -0.067618862 0.94200009 9785604
-0.13414711 -0.064619631 0.94200003 13333510
-0.068709493 -0.063801676 0.94200003 7882780
-0.067073517 -0.060529795 0.94200003 13333510
-0.12636857 -0.18052652 0.94500005 11908257
-0.12472738 -0.18052652 0.94500005 11973796
-0.090263247 -0.18216763 0.94500005 12107961
-0.08862213 -0.18134707 0.94500005 12687455
-0.086980939 -0.18052652 0.94500005 13333510
-0.12636857 -0.17806479 0.94500005 12620885
-0.12472738 -0.17806479 0.94500005 13333510
-0.086433902 -0.17833832 0.94500005 13092797
-0.12636857 -0.17560305 0.94500005 11973028
-0.12472738 -0.17560305 0.94500005 12039593
-0.085339814 -0.17560305 0.94500005 13289402
-0.12965089 -0.17314133 0.94500005 12752210
-0.12718913 -0.17314135 0.94500005 13009708
-0.085339814 -0.17314133 0.94500005 13333510
-0.08260455 -0.17286782 0.94500005 13333510
-0.12965089 -0.16985902 0.94500005 12752212
-0.12800969 -0.16985902 0.94500005 12686419
-0.085886858 -0.16958551 0.94500005 13151357
-0.12965089 -0.16657671 0.94500005 13333510
-0.12718913 -0.16739729 0.94500005 12686418
-0.086160377 -0.16657673 0.94500005 12233303
-0.12965089 -0.16329443 0.94500005 12751956
-0.12718913 -0.16329442 0.94500005 13009964
-0.085339814 -0.16329443 0.94500005 9126164
-0.12965089 -0.16001213 0.94500005 13333510
-0.12718913 -0.16001213 0.94500005 12686677
-0.085339814 -0.16001213 0.94500005 10519113
-0.083151594 -0.1597386 0.94500005 11566116
-0.12965089 -0.15755039 0.94500005 12171173
-0.12800969 -0.15755039 0.94500005 12105376
-0.085339814 -0.15755039 0.94500005 13333510
-0.082878068 -0.15755039 0.94500005 11039779
-0.12965089 -0.15508869 0.94500005 13333510
-0.12718913 -0.15508869 0.94500005 13009964
-0.082878068 -0.15508869 0.94500005 12150289
-0.080416381 -0.15590927 0.94500005 9214501
-0.13047144 -0.1518064 0.94500005 12812076
-0.08260455 -0.15207992 0.94500005 10719068
-0.13074496 -0.14825055 0.94500005 13333510
-0.080416381 -0.14852408 0.94500005 6249519
-0.13293312 -0.14606234 0.94500005 9936015
-0.13074496 -0.14496826 0.94500005 13333510
-0.080416381 -0.14524177 0.94500005 5329436
-0.13293312 -0.14113891 0.94500005 10265231
-0.131292 -0.14278004 0.94500005 11117721
-0.07877519 -0.14195947 0.94500005 10253575
-0.077134065 -0.14113891 0.94500005 13333510
-0.13293312 -0.13949773 0.94500005 10331539
-0.077134065 -0.13949773 0.94500005 8025882
-0.13293312 -0.13703603 0.94500005 10265746
-0.131292 -0.13785662 0.94500005 13333510
-0.07877519 -0.13621545 0.94500005 13333510
-0.077134065 -0.13703603 0.94500005 8159522
-0.13293312 -0.13375373 0.94500005 9930884
-0.07877519 -0.13375373 0.94500005 10713102
-0.077134065 -0.13375373 0.94500005 11041812
-0.13293312 -0.13047144 0.94500005 9608073
-0.131292 -0.12965086 0.94500005 13333510
-0.079322256 -0.13019791 0.94500005 11368207
-0.077134065 -0.13129202 0.94500005 7699238
-0.13293312 -0.12718913 0.94500005 9535600
-0.131292 -0.12718913 0.94500005 12027715
-0.079322264 -0.12746267 0.94500005 8743696
-0.077134065 -0.12636855 0.94500005 7833605
-0.13293312 -0.12390684 0.94500005 11172409
-0.076313473 -0.12390684 0.94500005 10844956
-0.131292 -0.12144508 0.94500005 10258800
-0.076313473 -0.12144508 0.94500005 11906189
-0.13293312 -0.11898337 0.94500005 7364190
-0.075492881 -0.11980395 0.94500005 13333510
-0.073851749 -0.11898337 0.94500005 12687200
-0.13293312 -0.11570107 0.94500005 8489840
-0.073851749 -0.11570107 0.94500005 12237489
-0.13293312 -0.11241877 0.94500005 8555128
-0.073851749 -0.11241877 0.94500005 12171950
-0.13348019 -0.10886295 0.94500005 11430696
-0.073851749 -0.10913648 0.94500005 12619855
-0.13293312 -0.10585418 0.94500005 9475472
-0.131292 -0.1050336 0.94500005 13333510
-0.075492881 -0.10667477 0.94500005 13333510
-0.073851749 -0.10585418 0.94500005 12420678
-0.13293312 -0.10339247 0.94500005 10594951
-0.073031187 -0.10339247 0.94500005 11245451
-0.13457432 -0.10011017 0.94500005 10790282
-0.073031187 -0.10093074 0.94500005 12746024
-0.13457432 -0.097648419 0.94500005 13333510
-0.073031187 -0.097648427 0.94500005 12554831
-0.13293312 -0.095186703 0.94500005 10987927
-0.073031187 -0.094366118 0.94500005 12028495
-0.13621545 -0.091904409 0.94500005 10723202
-0.13457432 -0.091083825 0.94500005 12028239
-0.075492881 -0.091904409 0.94500005 11448997
-0.073851749 -0.091083825 0.94500005 11448737
-0.13457432 -0.088622116 0.94500005 13333510
-0.073031187 -0.088622116 0.94500005 11974056
-0.13457432 -0.086160377 0.94500005 11962695
-0.073031187 -0.086980939 0.94500005 12555356
-0.13457432 -0.07877522 0.94500005 13333510
-0.13621545 -0.075492926 0.94500005 10389331
-0.13457432 -0.076313488 0.94500005 11831878
-0.13457432 -0.068928286 0.94500005 13333510
-0.067287125 -0.067287162 0.94500005 13333510
-0.067287125 -0.064825423 0.94500005 11099658
-0.13457432 -0.061543126 0.94500005 10179588
-0.067287125 -0.062363688 0.94500005 13333510
-0.13621545 -0.059081394 0.94500005 5978411
-0.13457432 -0.058260832 0.94500005 8141595
-0.08561074 -0.18109962 0.94800007 13333510
-0.08314117 -0.18109962 0.94800007 12827830
-0.079931825 -0.18129066 0.94900006 12566458
-0.13528635 -0.17900693 0.95000005 10656143
-0.13363647 -0.17900693 0.95000005 12095058
-0.13102457 -0.17881849 0.94900006 12423253
-0.12841606 -0.17863008 0.94800007 11842464
-0.08561074 -0.17780691 0.94800007 13333510
-0.08314117 -0.17863008 0.94800007 13344610
-0.079931825 -0.17881851 0.949 13213795
-0.13583629 -0.17543231 0.95000005 11762222
-0.13349581 -0.17552319 0.94900006 10719105
-0.13125265 -0.17573564 0.94866675 12229988
-0.12841606 -0.17616051 0.94800007 11973536
-0.08341556 -0.17561173 0.94800013 13347967
-0.079890147 -0.17543027 0.94850004 13344354
-0.077542178 -0.17570728 0.95000005 13486781
-0.13858603 -0.17240758 0.95000005 13333510
-0.13604005 -0.17231728 0.94950008 10909754
-0.13335514 -0.17204462 0.94800007 10392197
-0.1317088 -0.17204462 0.94800007 12292946
-0.08314117 -0.17122144 0.94800007 13224130
-0.079848468 -0.17204461 0.94800007 13284239
-0.076717243 -0.17240758 0.95000005 13415818
-0.14188564 -0.16828299 0.95000005 13333510
-0.13913596 -0.16883294 0.95000005 8943186
-0.13596883 -0.16975397 0.94900006 10905144
-0.13335514 -0.16957508 0.94800007 10392713
-0.1317088 -0.16957508 0.94800007 11251623
-0.08314117 -0.16957508 0.94800007 13410661
-0.079685219 -0.16926365 0.94933337 13414271
-0.076717243 -0.16910791 0.95000005 13219710
-0.14188564 -0.16663317 0.95000005 9934488
-0.13926506 -0.16645777 0.94900006 10649154
-0.1358247 -0.16710554 0.94800007 10056255
-0.13335514 -0.16710554 0.94800007 10590863
-0.1317088 -0.16710554 0.94800007 13333510
-0.08314117 -0.16710554 0.94800007 13404456
-0.080122873 -0.16683117 0.94800013 12362829
-0.076717243 -0.16663317 0.95000005 10200164
-0.13926506 -0.16398562 0.94900006 12484396
-0.1358247 -0.16381283 0.94800007 10782305
-0.13335514 -0.16381282 0.94800007 10856082
-0.1317088 -0.16381282 0.94800007 13333510
-0.08314117 -0.16381282 0.94800007 8213017
-0.079848468 -0.16381282 0.94800007 8940568
-0.076635621 -0.16398562 0.949 11498528
-0.074242502 -0.16415843 0.95000005 5671521
-0.13941093 -0.16085877 0.95000005 10588786
-0.13589677 -0.16060433 0.9485001 10586467
-0.13335514 -0.16052011 0.94800007 10988180
-0.1317088 -0.16052011 0.94800007 13333510
-0.082318008 -0.16134328 0.94800007 7433503
-0.079848468 -0.16052011 0.94800007 10647575
-0.076595679 -0.16060521 0.9485001 11831074
-0.074242502 -0.16003385 0.95000005 9601861
-0.14271057 -0.158384 0.95000005 13333510
-0.13941093 -0.1575591 0.95000005 10325617
-0.13589677 -0.15730989 0.94850004 10520415
-0.13335514 -0.1572274 0.94800007 10854034
-0.1317088 -0.1572274 0.94800007 12422744
-0.079574071 -0.15750179 0.94800013 10126617
-0.076555736 -0.1572274 0.94800007 10713887
-0.074242502 -0.1575591 0.95000005 6773296
-0.13941093 -0.15425941 0.95000005 10060657
-0.13596883 -0.15409705 0.94900006 10321504
-0.13335514 -0.15393467 0.94800007 10460050
-0.1317088 -0.15475784 0.94800007 11379111
-0.079848468 -0.15393467 0.94800007 11372595
-0.076636486 -0.15409619 0.949 10449445
-0.073692568 -0.15453438 0.95000005 6182198
-0.13858603 -0.15095976 0.95000005 11109185
-0.13629128 -0.15112823 0.94933337 10584405
-0.13335514 -0.15146513 0.94800007 10395023
-0.079848468 -0.15146513 0.94800007 13333510
-0.076442264 -0.15123473 0.95000005 9862689
-0.073417597 -0.15095976 0.95000005 8613679
-0.1356464 -0.14882539 0.94866675 12024624
-0.13335514 -0.14899559 0.94800007 10002060
-0.079025276 -0.14899559 0.94800007 10514203
-0.076883398 -0.14882539 0.94866675 13333510
-0.073417597 -0.148485 0.95000005 7433271
-0.13596883 -0.14585656 0.94900006 11369289
-0.13335514 -0.1448797 0.94800007 10001805
-0.079025276 -0.14570287 0.94800007 9856803
-0.076635621 -0.14585656 0.949 10382882
-0.073417597 -0.14601025 0.95000005 10383389
-0.13858603 -0.14188567 0.95000005 13333510
-0.13596885 -0.14256035 0.949 10584673
-0.13335514 -0.1432333 0.94800007 10133387
-0.076281339 -0.14268452 0.94800013 9533987
-0.073417597 -0.14271057 0.95000005 10647579
-0.13913596 -0.13913596 0.95000005 13333510
-0.1358247 -0.13911742 0.94800007 12483109
-0.075732537 -0.13911742 0.94800007 10647065
-0.073378518 -0.13933711 0.94950002 10647317
-0.13913596 -0.13638622 0.95000005 12155439
-0.13589677 -0.13589591 0.94850004 11631686
-0.075732537 -0.1358247 0.94800007 10846746
-0.073417597 -0.13611126 0.95000005 10713359
-0.13858603 -0.13363649 0.95000005 9472134
-0.13596883 -0.13349582 0.94900006 9274235
-0.075732537 -0.13335516 0.94800007 13333510
-0.073339447 -0.13349582 0.94900006 7764491
-0.13913596 -0.13088679 0.95000005 12223036
-0.13596883 -0.13102369 0.94900006 12287527
-0.076281339 -0.13061124 0.94800013 9401631
-0.073339447 -0.13102369 0.949 11958025
-0.070942819 -0.13116176 0.95000005 8223532
-0.13913596 -0.12813708 0.95000005 11109985
-0.13596883 -0.12772751 0.949 10517589
-0.076281339 -0.12786731 0.94800013 9533970
-0.073301241 -0.12766063 0.94850004 9601810
-0.070392892 -0.12758712 0.95000005 10587712
-0.14188564 -0.1237375 0.95000005 13333510
-0.13941093 -0.12456243 0.95000005 9727308
-0.1358247 -0.1243002 0.94800007 9269839
-0.073263034 -0.1243002 0.94800007 11306798
-0.070942819 -0.12456243 0.95000005 12368029
-0.14188564 -0.12126274 0.95000005 11899492
-0.13941093 -0.12126274 0.95000005 11891738
-0.1358247 -0.12100745 0.94800007 9598274
-0.13335514 -0.12183062 0.94800007 8553318
-0.072988652 -0.12128185 0.94800013 12558959
-0.070043236 -0.12113509 0.94900006 12954763
-0.13941093 -0.11796308 0.95000005 8146764
-0.1358247 -0.1185379 0.94800007 6834253
-0.072439872 -0.1185379 0.94800007 12303543
-0.070793465 -0.1185379 0.94800007 12500149
-0.13858603 -0.11548832 0.95000005 13333510
-0.1358247 -0.11606838 0.94800007 10647601
-0.072439872 -0.11606838 0.94800007 13333510
-0.070793465 -0.11606838 0.94800007 13333510
-0.14188564 -0.11301359 0.95000005 9724452
-0.13933799 -0.11295454 0.94950008 10383146
-0.1358247 -0.11277567 0.94800007 10910270
-0.072439872 -0.11277567 0.94800007 12818267
-0.070793465 -0.11277567 0.94800007 12368816
-0.14271057 -0.108889 0.95000005 9266476
-0.13933799 -0.10965575 0.94950008 11825949
-0.13609909 -0.10975735 0.94800013 7433324
-0.072439872 -0.10948294 0.94800007 12687451
-0.070793465 -0.10948294 0.94800007 12685650
-0.14271057 -0.10723919 0.95000005 9790512
-0.13894147 -0.10653989 0.94866675 9268000
-0.1358247 -0.10619023 0.94800007 10190410
-0.072439872 -0.10619023 0.94800007 12486218
-0.070293315 -0.10598993 0.94866675 13333510
-0.14518532 -0.10228967 0.95000005 13333510
-0.14353551 -0.10228967 0.95000005 5263946
-0.139338 -0.1030599 0.94950002 9532739
-0.1358247 -0.10289751 0.94800007 11245147
-0.070043236 -0.10300605 0.94900006 12355394
-0.13941093 -0.10063986 0.95000005 11437637
-0.13664787 -0.10042799 0.94800007 10724487
-0.070043236 -0.10053392 0.94900006 11776152
-0.14573529 -0.097890101 0.95000005 10709277
-0.14271057 -0.097340144 0.95000005 10117664
-0.13941093 -0.098165073 0.95000005 10974511
-0.13693616 -0.098165073 0.95000005 10723461
-0.070043236 -0.098061748 0.949 12620622
-0.14573528 -0.09514039 0.95000005 10709021
-0.14271057 -0.094865412 0.95000005 13333510
-0.13941093 -0.094865412 0.95000005 11303988
-0.13596883 -0.094765551 0.94900006 11441259
-0.070043236 -0.094765559 0.949 11769709
-0.1450325 -0.091468498 0.94900006 5395522
-0.14263503 -0.091517121 0.94950002 9658405
-0.13919125 -0.091421612 0.9485001 9992520
-0.13664787 -0.090549789 0.94800007 10723455
-0.072439872 -0.091372982 0.94800007 12291664
-0.070043236 -0.091469362 0.94900006 11836536
-0.14518532 -0.089091018 0.95000005 5396290
-0.1424356 -0.088541076 0.95000005 8345648
-0.13941093 -0.08826609 0.95000005 9861711
-0.13664787 -0.088080265 0.94800007 10658433
-0.070043236 -0.088173181 0.949 12430704
-0.13941093 -0.084966421 0.95000005 9662789
-0.13664787 -0.08561074 0.94800007 10658426
-0.069793165 -0.085181199 0.94933337 10319173
-0.13941093 -0.082491688 0.95000005 10578733
-0.13664787 -0.083141193 0.94800007 10657909
-0.069970302 -0.083141193 0.94800007 13333510
-0.13913596 -0.080291897 0.95000005 10123334
-0.13664787 -0.079848468 0.94800007 10526333
-0.14188564 -0.075892359 0.95000005 6507849
-0.13903873 -0.076389037 0.94933337 11893288
