# .PCD v0.7 - Point Cloud Data file format
VERSION 0.7
FIELDS x y z rgba
SIZE 4 4 4 4
TYPE F F F U
COUNT 1 1 1 1
WIDTH 1105
HEIGHT 1
VIEWPOINT 0 0 0 1 0 0 0
POINTS 1105
DATA ascii
-0.22417241 -0.12705801 0.93200004 11130569
-0.2208163 -0.12698941 0.93150008 726643
-0.21781275 -0.12723631 0.93133342 2764133
-0.2148083 -0.12759289 0.93000007 2700648
-0.17120059 -0.12759289 0.93000007 9401210
-0.16874962 -0.12723631 0.93133342 9214605
-0.16671304 -0.12705801 0.93200004 8299933
-0.22660027 -0.12463015 0.93200004 14805212
-0.22417241 -0.12463015 0.93200004 11130831
-0.22046115 -0.1243627 0.93000007 664949
-0.21711808 -0.12499022 0.9306668 2632548
-0.2148083 -0.12517026 0.93000007 2568547
-0.17120059 -0.12597781 0.93000007 7197405
-0.1695855 -0.12517026 0.93000007 8694433
-0.16713218 -0.12400149 0.93133342 7976118
-0.226114 -0.12274762 0.93000007 14804697
-0.2234222 -0.12220925 0.93000007 10014668
-0.22046115 -0.12194007 0.93000007 862068
-0.21750015 -0.12220925 0.93000007 2630754
-0.1695855 -0.12194006 0.93000007 8691364
-0.16755131 -0.12175771 0.9306668 9152143
-0.226114 -0.11870985 0.93000007 11909469
-0.22369136 -0.11870985 0.93000007 9742914
-0.22046116 -0.11870985 0.93000007 1451347
-0.21723098 -0.11870985 0.93000007 2500448
-0.2148083 -0.11870985 0.93000007 2369893
-0.16916756 -0.1190647 0.9306668 5797520
-0.16713218 -0.11861086 0.93133342 8885131
-0.22635713 -0.11560468 0.93100005 3880504
-0.22393189 -0.11560468 0.93100011 3814962
-0.22069821 -0.11560468 0.93100005 1976406
-0.21723096 -0.11547965 0.93000007 2569583
-0.2148083 -0.11547965 0.93000007 2964333
-0.1695855 -0.11547965 0.93000007 4553898
-0.16659266 -0.11564521 0.93133342 6124431
-0.22660027 -0.11249085 0.93200004 4933696
-0.22417241 -0.11249085 0.93200004 4539977
-0.22081715 -0.11243006 0.93150008 3549278
-0.21734819 -0.11230937 0.93050009 4141160
-0.16916756 -0.11206016 0.9306668 4616348
-0.16713218 -0.11267956 0.93133342 4026012
-0.22821882 -0.10844443 0.93200004 5065804
-0.22660027 -0.1092537 0.93200004 5000012
-0.22417241 -0.1092537 0.93200004 4475476
-0.22069907 -0.10913647 0.93100011 3354700
-0.21746542 -0.10913648 0.93100011 3880781
-0.1695855 -0.10982679 0.93000007 7197405
-0.16659266 -0.10917556 0.93133342 6202301
-0.22821882 -0.10601656 0.93200004 5130818
-0.22660027 -0.10601656 0.93200004 5197127
-0.22417241 -0.10601656 0.93200004 4934739
-0.22093526 -0.10682584 0.93200004 5524300
-0.21746542 -0.10671122 0.93100005 9928762
-0.16612868 -0.10630658 0.93100005 5199478
-0.22821882 -0.10358869 0.93200004 5130818
-0.22660027 -0.10358869 0.93200004 5197124
-0.22417241 -0.10358869 0.93200004 5065293
-0.2205801 -0.10422952 0.93050009 5655121
-0.21750015 -0.10390478 0.93000007 9339440
-0.16674919 -0.10405691 0.93040007 6525336
-0.22660027 -0.10116084 0.93200004 5196867
-0.22417241 -0.10116084 0.93200004 4737349
-0.22046115 -0.10094376 0.93000007 5523274
-0.21723098 -0.10094376 0.93000007 9008679
-0.16647342 -0.10101613 0.9306668 7123637
-0.22393189 -0.097819507 0.93100011 4999486
-0.22046115 -0.09771356 0.93000007 5787207
-0.21696179 -0.097982749 0.93000007 9141280
-0.16647342 -0.09778361 0.9306668 7640698
-0.22369137 -0.094483346 0.93000007 5195338
-0.22126871 -0.094483346 0.93000007 5129796
-0.21642342 -0.093675807 0.93000007 9534991
-0.1695855 -0.094483346 0.93000007 7842193
-0.16647342 -0.094551072 0.9306668 8231284
-0.22369137 -0.091253147 0.93000007 5457480
-0.22046115 -0.091253147 0.93000007 6710303
-0.21696179 -0.090983972 0.93000007 9534746
-0.16674919 -0.091454253 0.93040007 8496482
-0.16410804 -0.090542868 0.93100005 8367993
-0.21642342 -0.087215416 0.93000007 9538604
-0.16689369 -0.087753773 0.93000007 9085012
-0.16410804 -0.088117599 0.93100011 9412947
-0.22288381 -0.085600294 0.93000007 5848879
-0.22126871 -0.085600294 0.93000007 7232054
-0.21642342 -0.085600294 0.93000007 9471516
-0.16716287 -0.085600294 0.93000007 7197405
-0.16389734 -0.085183501 0.93133342 7197405
-0.226114 -0.083985217 0.93000007 4607560
-0.2234222 -0.083446845 0.93000007 5324873
-0.22073035 -0.083446845 0.93000007 7893564
-0.21696179 -0.083446845 0.93000007 9470011
-0.2148083 -0.083177656 0.93000007 9077294
-0.16689369 -0.083446845 0.93000007 8493666
-0.16431877 -0.08296752 0.9306668 8295530
-0.22369137 -0.080755018 0.93000007 5325394
-0.22126871 -0.080755018 0.93000007 7892540
-0.21642342 -0.080755018 0.93000007 9405748
-0.1663553 -0.079947457 0.93000007 8302719
-0.16410804 -0.080033422 0.93100011 8820565
-0.1663553 -0.076717257 0.93000007 8563580
-0.16410804 -0.07679975 0.93100011 9281362
-0.21965358 -0.073487058 0.93000007 8024074
-0.21803851 -0.074294619 0.93000007 7697947
-0.16410804 -0.073566079 0.93100005 8696469
-0.21965358 -0.070256844 0.93000007 8418843
-0.21803851 -0.069449306 0.93000007 9013009
-0.16366348 -0.070526026 0.93000007 9547371
-0.22046115 -0.066219114 0.93000007 8023605
-0.21803851 -0.066219114 0.93000007 9405220
-0.16312508 -0.067026645 0.93000007 9222262
-0.16185734 -0.067170784 0.93200004 9222772
-0.22046115 -0.064603984 0.93000007 8023085
-0.21803851 -0.064603984 0.93000007 9338912
-0.16393265 -0.064603984 0.93000007 9025647
-0.16185734 -0.063124366 0.93200004 11117057
-0.22019196 -0.062450536 0.93000007 8023583
-0.16312508 -0.062181346 0.93000007 9025903
-0.22449893 -0.058143593 0.93000007 4867906
-0.16366346 -0.058681965 0.93000007 8503964
-0.16185734 -0.059077933 0.93200004 9091955
-0.22449893 -0.056528516 0.93000007 4933433
-0.16312508 -0.055720955 0.93000007 11379719
-0.16185734 -0.055840787 0.93200004 9157746
-0.16312508 -0.053298321 0.93000007 7197405
-0.16151001 -0.05249076 0.93000007 6917999
-0.1608744 -0.04931353 0.93100005 7367243
-0.1608744 -0.046079841 0.93100005 7197405
-0.16066253 -0.043130688 0.93133342 5905679
-0.22288381 -0.040377486 0.93000007 5525580
-0.16108626 -0.040944807 0.9306668 6051926
-0.1608744 -0.037995659 0.93100011 5861492
-0.16066253 -0.035043627 0.93133342 1311012
-0.16066253 -0.031270422 0.93133342 5197936
-0.15862018 -0.030752888 0.93200004 7197405
-0.16054791 -0.028554287 0.9306668 6005418
-0.15862018 -0.028325044 0.93200004 7381656
-0.15989493 -0.025034063 0.93000007 10591531
-0.15862018 -0.025087897 0.93200004 8960653
-0.16023879 -0.022660006 0.93200004 10722834
-0.15862018 -0.021850731 0.93200004 8960115
-0.15989493 -0.020996304 0.93000007 10722821
-0.15862018 -0.019422863 0.93200004 7197405
-0.15862018 -0.016995016 0.93200004 8894834
-0.1578109 -0.013757872 0.93200004 9874241
-0.15764071 -0.01050944 0.93100005 8894579
-0.15764071 -0.0072757695 0.93100005 7197405
-0.15764071 -0.0040420997 0.93100005 8894575
-0.15764071 -0.0016168583 0.93100005 10591233
-0.15700163 0.00080928591 0.93200004 8894319
-0.15538302 0.0016185718 0.93200004 10591233
-0.15700163 0.0040464299 0.93200004 8959599
-0.15538302 0.0040464299 0.93200004 8959599
-0.15666471 0.0072679436 0.93000007 7197405
-0.15484351 0.0075533353 0.93200004 9350993
-0.15666471 0.01049814 0.93000007 8167031
-0.15457374 0.010520717 0.93200004 8151870
-0.15666471 0.013728361 0.93000007 7039606
-0.15484351 0.013488121 0.93200004 7096143
-0.15666471 0.016958557 0.93000007 7502218
-0.15538302 0.016995028 0.93200004 7503757
-0.15666471 0.020188754 0.93000007 7835022
-0.15538302 0.019422885 0.93200004 7197405
-0.15666471 0.022611402 0.93000007 7197405
-0.15538302 0.021850742 0.93200004 8348252
-0.15666471 0.025034051 0.93000007 7970460
-0.15457374 0.025087886 0.93200004 8157055
-0.15731537 0.028554272 0.9306668 7509425
-0.15538302 0.027515745 0.93200004 8716581
-0.17156875 0.032371461 0.93200004 7132466
-0.16914093 0.032371461 0.93200004 7197405
-0.16605429 0.031809941 0.93133342 9491661
-0.16366346 0.03122526 0.93000007 10731198
-0.1608744 0.031528309 0.93100005 10473405
-0.1578109 0.031562176 0.93200004 9095879
-0.16590378 0.033990029 0.93200004 7197405
-0.17049727 -0.18023995 0.93500006 5334407
-0.17049727 -0.1786162 0.93500006 5726340
-0.22245833 -0.17699237 0.93500006 725088
-0.22002262 -0.17618051 0.93500006 2698315
-0.17049727 -0.17618051 0.93500006 5528450
-0.22245833 -0.17212106 0.93500006 263780
-0.22029325 -0.17320357 0.93500012 2301757
-0.16995601 -0.17266232 0.93500012 4739714
-0.22245833 -0.16887344 0.93500006 198253
-0.22029325 -0.16995601 0.93500012 1911116
-0.1688735 -0.16968536 0.93500006 6977665
-0.2265178 -0.1656259 0.93500006 10209473
-0.22327021 -0.1664378 0.93500006 2238338
-0.22083451 -0.16724969 0.93500006 1321296
-0.1688735 -0.16724969 0.93500006 5065606
-0.22895342 -0.16400214 0.93500006 14210768
-0.2265178 -0.16319023 0.93500006 11522763
-0.22327021 -0.16319023 0.93500006 2633355
-0.16724968 -0.16237833 0.93500006 3557761
-0.2265178 -0.15994267 0.93500006 11786963
-0.22327021 -0.15994267 0.93500006 2700182
-0.16724968 -0.16075458 0.93500006 3691656
-0.16724968 -0.157507 0.93500006 3554937
-0.22570591 -0.15588321 0.93500006 12441804
-0.22327021 -0.15588321 0.93500006 3160992
-0.22245833 -0.15101188 0.93500006 65932
-0.16724968 -0.15182376 0.93500006 3225734
-0.2265178 -0.14938807 0.93500006 13363420
-0.22299957 -0.14884683 0.93500012 2174622
-0.16724968 -0.1485762 0.93500006 3226501
-0.22408208 -0.14532861 0.93500006 6789324
-0.16724968 -0.14532861 0.93500006 2635400
-0.16724968 -0.14208105 0.93500006 2301058
-0.16724968 -0.13883348 0.93500006 7364720
-0.16724968 -0.13639782 0.93500006 7197405
-0.16724968 -0.13315025 0.93500006 7197405
-0.16562593 -0.12340756 0.93500006 9928022
-0.16562593 -0.12097184 0.93500006 8761245
-0.16562593 -0.11853619 0.93500006 7197405
-0.16562593 -0.11285294 0.93500006 5933234
-0.16400211 -0.10229838 0.93500006 7197405
-0.16400211 -0.099862687 0.93500006 7579534
-0.16400211 -0.097427003 0.93500006 7197405
-0.16400211 -0.094991311 0.93500006 7972492
-0.16319022 -0.091743752 0.93500006 8433785
-0.16237834 -0.088496193 0.93500006 7197405
-0.16237834 -0.085248627 0.93500006 7197405
-0.16075459 -0.084436752 0.93500006 7693871
-0.16237834 -0.082001068 0.93500006 8038281
-0.16237834 -0.079565383 0.93500006 9867311
-0.16237834 -0.077129722 0.93500006 8762485
-0.16237834 -0.073882163 0.93500006 7197405
-0.16237834 -0.070634574 0.93500006 9224306
-0.16237834 -0.064951323 0.93500006 7197405
-0.16237834 -0.061703756 0.93500006 7197405
-0.16075459 -0.056020528 0.93500006 11052571
-0.15994269 -0.052772969 0.93500006 9742920
-0.15913077 -0.049525402 0.93500006 7717252
-0.15913077 -0.046277817 0.93500006 7197405
-0.157507 -0.046277817 0.93500006 10333467
-0.15913077 -0.043030255 0.93500006 7977856
-0.15913077 -0.040594567 0.93500006 7197405
-0.15913077 -0.038158908 0.93500006 7197405
-0.15913077 -0.034911346 0.93500006 6387823
-0.15913077 -0.032475684 0.93500006 8159538
-0.157507 -0.030851878 0.93500006 11776337
-0.157507 -0.028416216 0.93500006 11446341
-0.157507 -0.025168654 0.93500006 10855221
-0.157507 -0.021921067 0.93500006 10657555
-0.157507 -0.019485381 0.93500006 10854152
-0.157507 -0.017049721 0.93500006 10788872
-0.15588319 -0.012990255 0.93500006 10788386
-0.15588319 -0.010554593 0.93500006 8960124
-0.15588319 -0.0073070298 0.93500006 7197405
-0.15588319 -0.0040594661 0.93500006 8959855
-0.15588319 -0.001623805 0.93500006 10657025
-0.15507132 0 0.93500006 7197405
-0.15425943 0.0040594544 0.93500006 9025135
-0.15425943 0.0064951275 0.93500006 7197405
-0.15263566 0.0073070182 0.93500006 10328330
-0.15263566 0.010554582 0.93500006 8137732
-0.15425943 0.014614061 0.93500006 7197405
-0.15263566 0.012990278 0.93500006 7340807
-0.15425943 0.017049734 0.93500006 7567754
-0.15425943 0.019485407 0.93500006 7197405
-0.15425943 0.02192108 0.93500006 7831942
-0.15507132 0.028416205 0.93500006 7898777
-0.15588319 0.031663768 0.93500006 10999727
-0.22456141 -0.17737098 0.93700004 3481719
-0.22374779 -0.17493011 0.93700004 1841518
-0.22944318 -0.17248924 0.93700004 12433325
-0.22700232 -0.17248924 0.93700004 8694182
-0.22456141 -0.17248924 0.93700004 3880071
-0.22673112 -0.17031954 0.93700004 8826020
-0.22401902 -0.17031954 0.93700004 2761602
-0.16760743 -0.17004833 0.93700004 7169917
-0.2261887 -0.16760744 0.93700004 8696236
-0.16706502 -0.16652261 0.93700004 4608371
-0.16652262 -0.16381051 0.93700004 3553139
-0.16652262 -0.16001357 0.93700004 4747420
-0.23215531 -0.15675907 0.93700004 14539729
-0.22944318 -0.15621664 0.93700004 14933976
-0.22700232 -0.15703027 0.93700004 12641238
-0.22374779 -0.1578439 0.93700004 2898077
-0.1659802 -0.15703027 0.93700004 5212336
-0.22374779 -0.15458941 0.93700004 3096228
-0.1659802 -0.15458941 0.93700004 7197405
-0.22374779 -0.15214851 0.93700004 3162790
-0.1659802 -0.15214851 0.93700004 5277105
-0.2261887 -0.14808038 0.93700004 13231826
-0.22456141 -0.14808038 0.93700004 6656451
-0.1659802 -0.148894 0.93700004 4949426
-0.1659802 -0.14563946 0.93700004 7197405
-0.1659802 -0.14238495 0.93700004 5603504
-0.1659802 -0.13099417 0.93700004 8496543
-0.1659802 -0.12773965 0.93700004 8430998
-0.1659802 -0.12529877 0.93700004 7197405
-0.16435289 -0.10983983 0.93700004 7197405
-0.16435289 -0.10658532 0.93700004 6132134
-0.16326809 -0.10360201 0.93700004 6581082
-0.16272567 -0.1000763 0.93700004 7579532
-0.16272567 -0.096821763 0.93700004 8551737
-0.16272567 -0.094380893 0.93700004 9010216
-0.16272567 -0.092753612 0.93700004 9342232
-0.16109844 -0.091126382 0.93700004 9735966
-0.16109844 -0.088685483 0.93700004 8564862
-0.16028479 -0.08543098 0.93700004 7707262
-0.16028479 -0.082176469 0.93700004 8367754
-0.16109844 -0.078921959 0.93700004 10129975
-0.16109844 -0.076481059 0.93700004 10595138
-0.16109844 -0.074040189 0.93700004 11186997
-0.16109844 -0.070785657 0.93700004 11516207
-0.160556 -0.067259945 0.93700004 9945196
-0.16028479 -0.064276636 0.93700004 8955746
-0.16028479 -0.061022129 0.93700004 9284960
-0.16028479 -0.058581233 0.93700004 9092225
-0.15947114 -0.056140363 0.93700004 8895626
-0.1578439 -0.056140363 0.93700004 10921769
-0.1578439 -0.052885853 0.93700004 7582331
-0.1578439 -0.049631342 0.93700004 8095257
-0.15621662 -0.047190424 0.93700004 7197405
-0.1578439 -0.043122295 0.93700004 11054632
-0.1578439 -0.039867789 0.93700004 9159052
-0.1578439 -0.037426893 0.93700004 10785322
-0.15730149 -0.034714807 0.93700004 8502945
-0.15675905 -0.032002725 0.93700004 9747574
-0.15621662 -0.028477 0.93700004 8567437
-0.15621662 -0.02522249 0.93700004 8499585
-0.15621662 -0.021967955 0.93700004 8894580
-0.15621662 -0.019527063 0.93700004 7197405
-0.15621662 -0.017086189 0.93700004 9025907
-0.15621662 -0.014645319 0.93700004 7197405
-0.1545894 -0.01057717 0.93700004 9025656
-0.1545894 -0.0073226597 0.93700004 7197405
-0.1545894 -0.0040681497 0.93700004 8959855
-0.1545894 -0.0016272784 0.93700004 10722561
-0.1545894 0.0016272551 0.93700004 10591233
-0.15296215 0.0016272551 0.93700004 10591233
-0.15296215 0.0040681381 0.93700004 10656769
-0.15133487 0.0073226476 0.93700004 7197405
-0.15133487 0.010577159 0.93700004 7639411
-0.15214851 0.013831692 0.93700004 7603212
-0.15296215 0.017086202 0.93700004 7566216
-0.15296215 0.019527085 0.93700004 9133362
-0.15296215 0.021967968 0.93700004 8398617
-0.15241973 0.025493687 0.93700004 7958646
-0.1545894 0.029290617 0.93700004 7197405
-0.15296215 0.028476989 0.93700004 8856390
-0.1689603 -0.17875512 0.94000006 6184061
-0.23181029 -0.17549017 0.94000006 12104614
-0.22936156 -0.17549019 0.94000006 10925487
-0.2269129 -0.17549017 0.94000006 6721944
-0.1689603 -0.17549017 0.94000006 5265280
-0.16814406 -0.17304149 0.94000006 4804993
-0.16651163 -0.17222525 0.94000006 5593473
-0.23181029 -0.1689603 0.94000006 13156787
-0.22936156 -0.1689603 0.94000006 12044989
-0.16651163 -0.1689603 0.94000006 6385006
-0.16487911 -0.16814408 0.94000006 5928564
-0.23181029 -0.1665116 0.94000006 13354175
-0.23017778 -0.1665116 0.94000006 13554375
-0.16487911 -0.1665116 0.94000006 5920369
-0.16487911 -0.16406289 0.94000006 3748208
-0.23017778 -0.15998173 0.94000006 14803161
-0.16487911 -0.16079798 0.94000006 3095928
-0.23181029 -0.15834928 0.94000006 14671058
-0.22936156 -0.15834928 0.94000006 14015966
-0.16487911 -0.15753303 0.94000006 3096450
-0.22936156 -0.15345186 0.94000006 14214110
-0.22636873 -0.15399604 0.94000006 10272201
-0.16487911 -0.15426812 0.94000006 3292293
-0.23017778 -0.15018693 0.94000006 14933978
-0.2269129 -0.15181942 0.94000006 12641492
-0.16487911 -0.15100318 0.94000006 3422341
-0.23181029 -0.14855449 0.94000006 14736588
-0.22936156 -0.14855449 0.94000006 14410972
-0.16406289 -0.14855449 0.94000006 2830985
-0.23181029 -0.14610577 0.94000006 14737109
-0.22936156 -0.14610577 0.94000006 14541792
-0.2269129 -0.14610577 0.94000006 13561048
-0.16406289 -0.14610575 0.94000006 4945839
-0.22936156 -0.14365707 0.94000006 14608355
-0.16487911 -0.14284083 0.94000006 7890791
-0.16651163 -0.1395759 0.94000006 7774375
-0.16651163 -0.13631096 0.94000006 8826011
-0.16651163 -0.13386229 0.94000006 7197405
-0.16487911 -0.13304603 0.94000006 8498074
-0.16487911 -0.13059735 0.94000006 7197405
-0.16406289 -0.12814865 0.94000006 8628638
-0.16406289 -0.12488371 0.94000006 8496790
-0.16406289 -0.12161876 0.94000006 8497817
-0.16406289 -0.11835383 0.94000006 7197405
-0.16406289 -0.11508889 0.94000006 7913667
-0.16379082 -0.11209606 0.94000006 7309959
-0.16161424 -0.11100773 0.94000006 7197405
-0.16324666 -0.10937528 0.94000006 6509930
-0.16161424 -0.10937528 0.94000006 8547188
-0.16324666 -0.10692658 0.94000006 6590371
-0.16161424 -0.10692658 0.94000006 7197405
-0.16161424 -0.10366164 0.94000006 6855839
-0.16161424 -0.10039672 0.94000006 7645323
-0.16161424 -0.097131759 0.94000006 7972748
-0.16161424 -0.093866825 0.94000006 7197405
-0.15998173 -0.09141814 0.94000006 7197405
-0.15998173 -0.088969439 0.94000006 7197405
-0.15998173 -0.086520724 0.94000006 7197405
-0.15834928 -0.084888279 0.94000006 8743458
-0.15834928 -0.082439572 0.94000006 8433805
-0.15998173 -0.079174638 0.94000006 8697483
-0.15834928 -0.079174638 0.94000006 8763281
-0.15998173 -0.075909711 0.94000006 7515306
-0.15834928 -0.075909711 0.94000006 2572873
-0.15998173 -0.073461004 0.94000006 7197405
-0.15834928 -0.073461004 0.94000006 7197405
-0.15998173 -0.071012288 0.94000006 6532507
-0.15834928 -0.071012288 0.94000006 3702429
-0.15998173 -0.068563588 0.94000006 5736026
-0.15780511 -0.067475297 0.94000006 4823986
-0.15753302 -0.064482428 0.94000006 2315133
-0.15753302 -0.061217502 0.94000006 4026761
-0.15508434 -0.061217502 0.94000006 2104442
-0.15726094 -0.058224648 0.94000006 8761712
-0.15508434 -0.057952575 0.94000006 8634501
-0.15671678 -0.055503864 0.94000006 7197405
-0.15508434 -0.055503864 0.94000006 11775780
-0.15671678 -0.053055175 0.94000006 7508087
-0.15426812 -0.053055178 0.94000006 7973245
-0.15671678 -0.049790245 0.94000006 5604466
-0.15508434 -0.049790245 0.94000006 1969706
-0.15671678 -0.04570907 0.94000006 7197405
-0.15508434 -0.046525292 0.94000006 71463
-0.15671678 -0.043260358 0.94000006 6337663
-0.15508434 -0.044076581 0.94000006 72979
-0.15671678 -0.039995432 0.94000006 6403463
-0.15508434 -0.039995432 0.94000006 75037
-0.15671678 -0.03754672 0.94000006 5414482
-0.15508434 -0.03754672 0.94000006 75817
-0.15671678 -0.035914283 0.94000006 7197405
-0.15426812 -0.035098039 0.94000006 4623245
-0.15426812 -0.031833105 0.94000006 8169621
-0.15426812 -0.028568175 0.94000006 7711673
-0.15426812 -0.025303245 0.94000006 8166283
-0.15426812 -0.022038292 0.94000006 9480268
-0.15426812 -0.019589581 0.94000006 9156729
-0.15426812 -0.017140897 0.94000006 9025662
-0.15426812 -0.013875965 0.94000006 8959867
-0.15345189 -0.010611035 0.94000006 9091189
-0.15345189 -0.0073461048 0.94000006 10853380
-0.15345189 -0.0040811747 0.94000006 8959855
-0.15181939 -0.0032649303 0.94000006 7197405
-0.15345189 -0.0016324886 0.94000006 10657026
-0.15181939 -0.0016324886 0.94000006 10657282
-0.15345189 0 0.94000006 10657025
-0.15127525 0.0010883101 0.94000006 9481802
-0.15100317 0.0040811626 0.94000006 9873997
-0.15018694 0.0073460937 0.94000006 10197009
-0.15018694 0.010611024 0.94000006 7809036
-0.15100317 0.013875977 0.94000006 7367286
-0.15181939 0.017140908 0.94000006 7565448
-0.15181939 0.019589605 0.94000006 7197405
-0.15100317 0.022038303 0.94000006 7967883
-0.15073109 0.025031155 0.94000006 7577768
-0.15100317 0.028568165 0.94000006 8609645
-0.1545402 0.031561017 0.94000006 9688511
-0.15181939 0.03101686 0.94000006 7197405
-0.16604792 -0.17913544 0.94200003 5725311
-0.16359401 -0.17831746 0.94200003 5397377
-0.16604792 -0.17586356 0.94200003 5396871
-0.16359401 -0.17668155 0.94200003 5529219
-0.16522993 -0.17259169 0.94200003 5526652
-0.16359401 -0.1717737 0.94200003 5593970
-0.16522993 -0.17013775 0.94200003 5924470
-0.16359401 -0.16931978 0.94200003 5859195
-0.16359401 -0.16604792 0.94200003 5392499
-0.16359401 -0.16359399 0.94200003 2896753
-0.16359401 -0.16114008 0.94200003 5146280
-0.16359401 -0.15786821 0.94200003 5211824
-0.2323035 -0.15541431 0.94200003 14736591
-0.22984956 -0.15541431 0.94200003 14214618
-0.16359401 -0.15459633 0.94200003 7197405
-0.22984956 -0.15214245 0.94200003 14279907
-0.16359401 -0.15132447 0.94200003 5014448
-0.1619581 -0.15132447 0.94200003 7197405
-0.1619581 -0.14805259 0.94200003 5795758
-0.1619581 -0.14559864 0.94200003 7197405
-0.16359401 -0.14314474 0.94200003 7972251
-0.1619581 -0.14396273 0.94200003 10518607
-0.16522993 -0.13987288 0.94200003 10387286
-0.16359401 -0.13987288 0.94200003 8693647
-0.16522993 -0.136601 0.94200003 8693397
-0.16359401 -0.136601 0.94200003 8626575
-0.16359401 -0.13332912 0.94200003 8563605
-0.16359401 -0.13087521 0.94200003 7197405
-0.1619581 -0.13005725 0.94200003 8627617
-0.1619581 -0.12760335 0.94200003 7197405
-0.1611401 -0.12514943 0.94200003 9211748
-0.1611401 -0.12187752 0.94200003 8883553
-0.1611401 -0.11860564 0.94200003 8497557
-0.1611401 -0.11533377 0.94200003 9279608
-0.16086744 -0.11233455 0.94200009 10059867
-0.1603221 -0.109608 0.94200003 9533311
-0.15868619 -0.109608 0.94200003 10524027
-0.1603221 -0.10715407 0.94200003 8102826
-0.15868619 -0.10715407 0.94200003 7197405
-0.1603221 -0.1038822 0.94200003 8023910
-0.15868619 -0.1038822 0.94200003 8301469
-0.1603221 -0.10061032 0.94200003 8158785
-0.15868619 -0.10061032 0.94200003 7710612
-0.1603221 -0.097338423 0.94200003 8749117
-0.15868619 -0.097338423 0.94200003 8038542
-0.1603221 -0.094066545 0.94200003 8237186
-0.15868619 -0.094066545 0.94200003 8302734
-0.15868619 -0.091612652 0.94200003 7197405
-0.15786821 -0.089158736 0.94200003 7650729
-0.15759555 -0.086159512 0.94200009 8491096
-0.15705022 -0.082614973 0.94200003 7197405
-0.15705022 -0.079343095 0.94200003 8894615
-0.1554143 -0.08016105 0.94200003 10920260
-0.15705022 -0.076071218 0.94200003 7197405
-0.1554143 -0.075253263 0.94200003 7197405
-0.15705022 -0.073617302 0.94200003 7197405
-0.1554143 -0.073617302 0.94200003 1312620
-0.15705022 -0.071163386 0.94200003 7197405
-0.1554143 -0.071163386 0.94200003 1709161
-0.15705022 -0.068709463 0.94200003 789602
-0.15486901 -0.067618862 0.94200009 3298959
-0.15459634 -0.064619631 0.94200003 4289953
-0.15377839 -0.061347753 0.94200003 5536944
-0.15377839 -0.058075875 0.94200003 7197405
-0.15214242 -0.058075875 0.94200003 8362324
-0.15377839 -0.055621956 0.94200003 7197405
-0.15214242 -0.055621956 0.94200003 11578422
-0.15214242 -0.053168058 0.94200003 11312933
-0.15377839 -0.049896181 0.94200003 5933974
-0.15214242 -0.050714165 0.94200003 10325795
-0.15377839 -0.046624281 0.94200003 7197405
-0.1543237 -0.043079756 0.94200009 4822938
-0.15214242 -0.042534448 0.94200003 7197405
-0.15377839 -0.040080529 0.94200003 6515055
-0.15214242 -0.040080529 0.94200003 9416076
-0.15377839 -0.037626609 0.94200003 5767681
-0.15214242 -0.037626609 0.94200003 11504697
-0.15132445 -0.035172712 0.94200003 7197405
-0.15132445 -0.031900834 0.94200003 8830869
-0.15132445 -0.028628958 0.94200003 8893572
-0.15132445 -0.025357082 0.94200003 8631434
-0.15132445 -0.022085181 0.94200003 8046257
-0.14887053 -0.022085182 0.94200003 7197405
-0.15132445 -0.019631263 0.94200003 7197405
-0.14887053 -0.019631263 0.94200003 7197405
-0.15132445 -0.017177366 0.94200003 8894341
-0.15132445 -0.013905489 0.94200003 8893815
-0.15132445 -0.010633612 0.94200003 10070600
-0.15132445 -0.0073617348 0.94200003 9025652
-0.1510518 -0.0043625184 0.94200009 10722818
-0.14887053 -0.0040898579 0.94200003 8960627
-0.1505065 -0.0016359618 0.94200003 10657282
-0.14887053 -0.0016359618 0.94200003 10657547
-0.1505065 0 0.94200003 10591489
-0.14887053 0.00081796927 0.94200003 8959855
-0.14887053 0.0040898463 0.94200003 9091197
-0.14887053 0.0073617231 0.94200003 7197405
-0.14887053 0.010633601 0.94200003 7505778
-0.1505065 0.01472347 0.94200003 7734546
-0.14887053 0.013087532 0.94200003 7603467
-0.1505065 0.017177377 0.94200003 8204871
-0.1505065 0.019631285 0.94200003 8938065
-0.14887053 0.019631285 0.94200003 7197405
-0.14887053 0.022085194 0.94200003 8033686
-0.14887053 0.025357069 0.94200003 7902604
-0.14887053 0.028628947 0.94200003 8296094
-0.15377839 0.032718793 0.94200003 14867589
-0.1510518 0.032173481 0.94200009 11456412
-0.14887053 0.031900823 0.94200003 7197405
-0.164115 -0.17560305 0.94500005 5528710
-0.164115 -0.17396192 0.94500005 5528444
-0.16247389 -0.16985902 0.94500005 5792642
-0.16247389 -0.16657671 0.94500005 5655159
-0.16247389 -0.16329443 0.94500005 2897520
-0.16247389 -0.16001213 0.94500005 5277609
-0.16247389 -0.15755039 0.94500005 3358591
-0.16247389 -0.15508869 0.94500005 5080749
-0.16083269 -0.15180638 0.94500005 6128039
-0.16083269 -0.14852408 0.94500005 7757671
-0.16083269 -0.14524177 0.94500005 9864257
-0.16247389 -0.14195947 0.94500005 8562066
-0.16083269 -0.14278004 0.94500005 10124365
-0.16247389 -0.13949773 0.94500005 7197405
-0.16247389 -0.13703603 0.94500005 8560529
-0.16247389 -0.13375373 0.94500005 8629399
-0.16083269 -0.13293314 0.94500005 9863765
-0.16001213 -0.13047144 0.94500005 9278590
-0.1597386 -0.12746267 0.94500005 8107182
-0.15919156 -0.12390684 0.94500005 8561807
-0.15919156 -0.12144508 0.94500005 9928261
-0.15919156 -0.11898337 0.94500005 7197405
-0.15919156 -0.11570107 0.94500005 8429455
-0.15919156 -0.11241877 0.94500005 8431514
-0.15755038 -0.11159819 0.94500005 9994601
-0.15755038 -0.10913648 0.94500005 10390384
-0.15755038 -0.10585418 0.94500005 9866582
-0.15755038 -0.10339247 0.94500005 9471563
-0.15590926 -0.10339247 0.94500005 7197405
-0.15755038 -0.10093074 0.94500005 9142606
-0.15755038 -0.097648419 0.94500005 9077316
-0.15755038 -0.094366118 0.94500005 8236186
-0.15755038 -0.091904409 0.94500005 7197405
-0.15590926 -0.090263233 0.94500005 7197405
-0.15590926 -0.088622116 0.94500005 7632149
-0.15590926 -0.086160377 0.94500005 8563080
-0.15590926 -0.082878083 0.94500005 7197405
-0.15590926 -0.07877522 0.94500005 10917162
-0.15508869 -0.076313488 0.94500005 6526582
-0.15426813 -0.073031165 0.94500005 4353963
-0.15426813 -0.070569456 0.94500005 7197405
-0.15262695 -0.070569456 0.94500005 7197405
-0.15426813 -0.068928286 0.94500005 1319791
-0.15262695 -0.067287162 0.94500005 1253232
-0.15262695 -0.064825423 0.94500005 924779
-0.15262695 -0.061543126 0.94500005 1841529
-0.15098582 -0.05744027 0.94500005 9283674
-0.15098582 -0.054978531 0.94500005 7197405
-0.15098582 -0.052516799 0.94500005 10000405
-0.15180638 -0.050055087 0.94500005 8300439
-0.15262695 -0.046772767 0.94500005 11039856
-0.15180638 -0.043490469 0.94500005 9351309
-0.15098582 -0.040208172 0.94500005 7196840
-0.15098582 -0.037746441 0.94500005 7327090
-0.14934462 -0.031181844 0.94500005 7197405
-0.14934462 -0.028720133 0.94500005 9158021
-0.14934462 -0.025437836 0.94500005 9091730
-0.14934462 -0.018052656 0.94500005 10657073
-0.14934462 -0.0073851799 0.94500005 7197405
-0.1477035 0.0016411485 0.94500005 10722563
-0.1477035 0.0041028713 0.94500005 10919436
-0.1477035 0.0065645939 0.94500005 7197405
-0.14934462 0.01477036 0.94500005 7197405
-0.14934462 0.016411508 0.94500005 8001331
-0.14934462 0.018052656 0.94500005 7197405
-0.1477035 0.022155527 0.94500005 8099993
-0.1477035 0.025437824 0.94500005 8033934
-0.1477035 0.028720122 0.94500005 8427173
-0.14606239 0.029540697 0.94500005 9919329
-0.1477035 0.032002419 0.94500005 7197405
-0.14606239 0.032002419 0.94500005 9817767
-0.15098582 0.034464143 0.94500005 11710848
-0.14852406 0.034464143 0.94500005 9487018
-0.14606239 0.034464143 0.94500005 11907195
-0.16298966 -0.17863008 0.94800007 5464457
-0.16168366 -0.17900693 0.95000005 5531024
-0.16298966 -0.17533734 0.94800007 5659777
-0.16168366 -0.17570728 0.95000005 5594499
-0.16298966 -0.1728678 0.94800007 5593211
-0.16168366 -0.17240758 0.95000005 5330054
-0.16047034 -0.16926365 0.94933337 6911622
-0.16090681 -0.16694808 0.94866675 5984885
-0.16068856 -0.16398562 0.94900006 3159655
-0.16068856 -0.16068944 0.949 7197405
-0.15838398 -0.16085875 0.95000005 3356518
-0.16068856 -0.15739325 0.949 5277354
-0.15838398 -0.1575591 0.95000005 3552884
-0.16024572 -0.15420906 0.94800013 4286868
-0.15838398 -0.15425941 0.95000005 5719628
-0.15969694 -0.15146513 0.94800007 7197405
-0.15838398 -0.15095976 0.95000005 9532986
-0.15969694 -0.14899559 0.94800007 7197405
-0.15755907 -0.148485 0.95000005 7197405
-0.15969694 -0.14570287 0.94800007 8628625
-0.15755907 -0.14601025 0.95000005 8627859
-0.16035803 -0.14223531 0.94866675 9016703
-0.15755907 -0.14271057 0.95000005 8496023
-0.16068856 -0.13926417 0.94900006 9144947
-0.15755907 -0.13941091 0.95000005 8561821
-0.16052011 -0.1358247 0.94800007 8431759
-0.15755907 -0.13611124 0.95000005 8692123
-0.15969694 -0.13335516 0.94800007 9530458
-0.15755907 -0.13363649 0.95000005 7197405
-0.15783404 -0.13088679 0.95000005 9082758
-0.15739235 -0.12772751 0.94900006 8562589
-0.15739235 -0.12443132 0.949 7197405
-0.15739235 -0.12113509 0.949 9344117
-0.15717296 -0.11815469 0.94933337 8951930
-0.15761176 -0.11587503 0.94866675 8819827
-0.15706298 -0.11312996 0.94866675 8952708
-0.15508436 -0.11301359 0.95000005 10125118
-0.1564042 -0.10948294 0.94800007 7197405
-0.15508436 -0.10971393 0.95000005 8562289
-0.1564042 -0.10619023 0.94800007 8563608
-0.15409619 -0.10630225 0.94900006 8168347
-0.1564042 -0.10207433 0.94800007 10191701
-0.15409619 -0.10300605 0.94900006 8563358
-0.1564042 -0.10042799 0.94800007 7197405
-0.15409619 -0.10053392 0.94900006 7197405
-0.1564042 -0.097958416 0.94800007 8169865
-0.15409619 -0.09806174 0.94900006 9675109
-0.1564042 -0.094665699 0.94800007 8170132
-0.15417778 -0.094815053 0.94950002 8491623
-0.1564042 -0.092196174 0.94800007 7197405
-0.1541778 -0.091517992 0.94950002 8103287
-0.1541778 -0.08822006 0.94950002 8491854
-0.15387562 -0.085181199 0.94933337 10656311
-0.15431675 -0.082924694 0.94866675 9810287
-0.15409619 -0.079932697 0.949 7197405
-0.15387562 -0.076937817 0.94933337 6919255
-0.15178469 -0.075892359 0.95000005 7197405
-0.15343449 -0.073417574 0.95000005 4486055
-0.15178469 -0.073417574 0.95000005 4486820
-0.15311147 -0.069147103 0.94800007 1253231
-0.15178469 -0.070117906 0.95000005 4094630
-0.15095976 -0.067643173 0.95000005 4094632
-0.15079999 -0.065099813 0.949 2509962
-0.148485 -0.064343512 0.95000005 7197405
-0.15079999 -0.061803624 0.94900006 3491727
-0.148485 -0.06186875 0.95000005 5141671
-0.15057826 -0.058802377 0.94933337 7644809
-0.148485 -0.058569089 0.95000005 8108953
-0.15013482 -0.055269428 0.95000005 8698248
-0.148485 -0.055269428 0.95000005 8896142
-0.15013482 -0.051969759 0.95000005 6576417
-0.15095976 -0.049495 0.95000005 2385231
-0.15095976 -0.047020242 0.95000005 6075839
-0.15095976 -0.044545479 0.95000005 7130794
-0.15013482 -0.040420912 0.95000005 3044173
-0.15013482 -0.037946153 0.95000005 3175498
-0.14892958 -0.036820814 0.94933337 6720926
-0.14915186 -0.034610018 0.94900006 7197405
-0.14683519 -0.034646489 0.95000005 7197405
-0.14872119 -0.032378428 0.94800013 7835750
-0.14683519 -0.032171756 0.95000005 8368015
-0.14817239 -0.028811309 0.94800007 9157772
-0.14683519 -0.028872091 0.95000005 9158033
-0.14817239 -0.025518592 0.94800007 9026195
-0.14683519 -0.025572427 0.95000005 9026451
-0.14817239 -0.022225851 0.94800007 9026190
-0.14683519 -0.022272741 0.95000005 8960656
-0.14817239 -0.018933134 0.94800007 8894600
-0.14683519 -0.018973079 0.95000005 8894858
-0.14899556 -0.016463585 0.94800007 7197405
-0.14601025 -0.016498318 0.95000005 8893327
-0.14899556 -0.013994059 0.94800007 8762754
-0.14601025 -0.014023582 0.95000005 9544558
-0.14899556 -0.010701342 0.94800007 8894598
-0.14601025 -0.010723919 0.95000005 9875058
-0.14817239 -0.0074086245 0.94800007 8895101
-0.14593297 -0.007420782 0.94950002 8046003
-0.14353551 -0.0065993275 0.95000005 7197405
-0.14817239 -0.0041159079 0.94800007 10657553
-0.1458557 -0.0041202493 0.949 9808978
-0.14353551 -0.0041245911 0.95000005 7197405
-0.14817239 -0.001646382 0.94800007 10657301
-0.1458557 -0.0016481187 0.94900006 10723350
-0.14353551 -0.0016498554 0.95000005 10919970
-0.14817239 0 0.94800007 10657548
-0.1458557 0.0008240476 0.949 8960122
-0.14353551 0.00082491594 0.95000005 8960384
-0.1458557 0.0041202381 0.949 9025913
-0.14353551 0.0032996638 0.95000005 7197405
-0.14817239 0.0082317926 0.94800007 9340162
-0.14593297 0.0074207699 0.94950008 7650470
-0.14817239 0.010701329 0.94800007 7608322
-0.14601025 0.010723908 0.95000005 7291704
-0.14817239 0.013994071 0.94800007 7801096
-0.14601025 0.014023593 0.95000005 7499632
-0.14817239 0.016463609 0.94800007 7197405
-0.14601025 0.016498342 0.95000005 7632776
-0.14817239 0.018933147 0.94800007 7197405
-0.14601025 0.01897309 0.95000005 7771805
-0.14353551 0.019798005 0.95000005 7197405
-0.1458557 0.022249309 0.94900006 7648956
-0.14353551 0.022272754 0.95000005 7698316
-0.1458557 0.025545498 0.949 8285795
-0.14353551 0.0247475 0.95000005 7675705
-0.14553036 0.028556585 0.94866675 8807553
-0.14353551 0.029696995 0.95000005 7197405
-0.14487967 0.032104015 0.94800007 11130789
-0.14323334 0.032104015 0.94800007 11130024
-0.16053922 -0.17791717 0.95300007 5726850
-0.16053922 -0.17543462 0.95300007 5593983
-0.16053922 -0.17295203 0.95300007 5198721
-0.15722913 -0.15391906 0.95300007 7197405
-0.15722913 -0.15143648 0.95300007 8562827
-0.1555741 -0.14812636 0.95300007 8496526
-0.1555741 -0.14564382 0.95300007 7197405
-0.1555741 -0.14316124 0.95300007 8496016
-0.1555741 -0.14067867 0.95300007 7197405
-0.1555741 -0.13736859 0.95300007 10057807
-0.15722913 -0.13240348 0.95300007 7197405
-0.15502241 -0.12467995 0.95300007 9083271
-0.15474656 -0.12164568 0.95300007 9473913
-0.15474656 -0.1183356 0.95300007 9802867
-0.15447073 -0.11530136 0.95300007 9215359
-0.15391903 -0.11254293 0.95300007 7197405
-0.15391903 -0.11006039 0.95300007 8562820
-0.152264 -0.11006039 0.95300007 8628119
-0.152264 -0.1067503 0.95300007 8364192
-0.152264 -0.10344022 0.95300007 8693665
-0.15143646 -0.10013013 0.95300007 8758908
-0.15143646 -0.097647533 0.95300007 7776146
-0.15143646 -0.095164984 0.95300007 8227176
-0.15143646 -0.0918549 0.95300007 8689749
-0.15143646 -0.088544816 0.95300007 8631939
-0.15143646 -0.085234739 0.95300007 8960382
-0.15143646 -0.081924647 0.95300007 9091460
-0.15143646 -0.079442106 0.95300007 7197405
-0.15116063 -0.077235363 0.95300007 6855262
-0.14895391 -0.077787034 0.95300007 7176478
-0.15060893 -0.073649421 0.95300007 4419235
-0.14895391 -0.073649421 0.95300007 4616098
-0.15060893 -0.070339337 0.95300007 991598
-0.14895391 -0.070339337 0.95300007 7197405
-0.14812639 -0.067029253 0.95300007 4421033
-0.14729889 -0.064546704 0.95300007 7197405
-0.14729889 -0.062064126 0.95300007 5075623
-0.1456438 -0.061236616 0.95300007 2820723
-0.14729889 -0.058754042 0.95300007 7977882
-0.1456438 -0.058754042 0.95300007 6848352
-0.14729889 -0.055443957 0.95300007 9028497
-0.14812639 -0.052133877 0.95300007 7197405
-0.14812639 -0.049651302 0.95300007 65860
-0.14895391 -0.047168728 0.95300007 6646157
-0.15060893 -0.043031134 0.95300007 2649680
-0.14895391 -0.043858644 0.95300007 7197405
-0.14840224 -0.040272728 0.95300007 6786209
-0.14729889 -0.037238475 0.95300007 7837330
-0.1456438 -0.033928394 0.95300007 8438432
-0.1456438 -0.031445816 0.95300007 7197405
-0.1456438 -0.028963268 0.95300007 11118414
-0.14398879 -0.028963268 0.95300007 9223832
-0.1456438 -0.025653183 0.95300007 10921036
-0.14398879 -0.025653183 0.95300007 9091990
-0.1456438 -0.022343077 0.95300007 10855240
-0.14398879 -0.023170585 0.95300007 7197405
-0.1456438 -0.019032992 0.95300007 10723902
-0.14398879 -0.019032992 0.95300007 8960908
-0.14398879 -0.016550418 0.95300007 7197405
-0.14398879 -0.014067868 0.95300007 8893842
-0.14316124 -0.010757783 0.95300007 9091727
-0.14288539 -0.0077235438 0.95300007 9548144
-0.1423337 -0.0041376166 0.95300007 8960386
-0.1423337 -0.0016550655 0.95300007 10788909
-0.1423337 0.00082752091 0.95300007 8960131
-0.14316124 0.0041376045 0.95300007 9091452
-0.14398879 0.0074476879 0.95300007 7197405
-0.14398879 0.010757771 0.95300007 7174003
-0.14343709 0.014343719 0.95300007 7688278
-0.14316124 0.016550442 0.95300007 7565689
-0.14288539 0.018757164 0.95300007 7443099
-0.14067869 0.019860527 0.95300007 7197405
-0.1423337 0.022343088 0.95300007 7762298
-0.14067869 0.021515567 0.95300007 8540998
-0.14288539 0.025929015 0.95300007 7425396
-0.14288539 0.028687416 0.95300007 8303025
-0.1423337 0.031445816 0.95300007 12503928
-0.1423337 0.033100858 0.95300007 7197405
-0.15921758 -0.16668093 0.95500004 4606810
-0.15921758 -0.16419317 0.95500004 3553622
-0.1575591 -0.16004688 0.95500004 7197405
-0.1575591 -0.15755911 0.95500004 7197405
-0.1559006 -0.15755911 0.95500004 3881051
-0.1575591 -0.15590057 0.95500004 6239834
-0.1559006 -0.15507132 0.95500004 5867163
-0.1559006 -0.15175429 0.95500004 7712147
-0.15424204 -0.14843723 0.95500004 8364947
-0.15424204 -0.1451202 0.95500004 8363667
-0.15424204 -0.14263244 0.95500004 7197405
-0.1547949 -0.13986826 0.9550001 8884867
-0.15507132 -0.13682763 0.95500004 8694167
-0.1559006 -0.1335106 0.95500004 10123607
-0.15534775 -0.12991716 0.9550001 9213839
-0.1547949 -0.12715295 0.9550001 9214099
-0.15258355 -0.12438875 0.95500004 7197405
-0.15203071 -0.12162455 0.9550001 7197405
-0.15258355 -0.11858393 0.95500004 8958625
-0.15258355 -0.1152669 0.95500004 8759961
-0.15175427 -0.11194988 0.95500004 8693657
-0.150925 -0.1094621 0.95500004 10388314
-0.150925 -0.10697433 0.95500004 10193242
-0.150925 -0.10365731 0.95500004 10389585
-0.1492665 -0.099511005 0.95500004 8287812
-0.1492665 -0.097023219 0.95500004 7197405
-0.1492665 -0.094535433 0.95500004 7893045
-0.14871368 -0.0923241 0.9550001 8034190
-0.1492665 -0.088730641 0.95500004 7197405
-0.1492665 -0.085413605 0.95500004 8960902
-0.1492665 -0.082096584 0.95500004 8960395
-0.1492665 -0.07960882 0.95500004 7197405
-0.14816085 -0.076844625 0.9550001 6455142
-0.14760801 -0.073803976 0.95500004 1446504
-0.14760801 -0.070486948 0.95500004 1315956
-0.14594945 -0.06716992 0.95500004 4749994
-0.14594945 -0.063852891 0.95500004 3830439
-0.14429097 -0.061365131 0.95500004 7197405
-0.14429097 -0.058877349 0.95500004 7649952
-0.1451202 -0.055560317 0.95500004 10139764
-0.14594945 -0.052243285 0.95500004 7626013
-0.14760801 -0.048096966 0.95500004 7197405
-0.14594945 -0.049755502 0.95500004 131402
-0.14760801 -0.04643847 0.95500004 9456229
-0.14760801 -0.043950684 0.95500004 7197405
-0.14760801 -0.041462902 0.95500004 9069132
-0.14594945 -0.03980441 0.95500004 7978094
-0.14539662 -0.037040211 0.9550001 7391671
-0.14429097 -0.033999596 0.95500004 8566942
-0.14263241 -0.03317035 0.95500004 6650715
-0.14429097 -0.031511813 0.95500004 7197405
-0.14263241 -0.031511813 0.95500004 8955999
-0.14263241 -0.02902405 0.95500004 11118679
-0.14263241 -0.025707021 0.95500004 9092248
-0.14429097 -0.021560719 0.95500004 10921034
-0.14263241 -0.018243689 0.95500004 10724157
-0.14263241 -0.016585151 0.95500004 7197405
-0.14263241 -0.014097391 0.95500004 8828812
-0.14097391 -0.01078036 0.95500004 9026186
-0.14097391 -0.0074633304 0.95500004 7197405
-0.14097391 -0.0041462998 0.95500004 7197405
-0.14097391 -0.0016585389 0.95500004 10658859
-0.14097391 0.00082925759 0.95500004 8960131
-0.14263241 0.0049755452 0.95500004 10985245
-0.14097391 0.0041462877 0.95500004 9091710
-0.14263241 0.0074633183 0.95500004 7197405
-0.14263241 0.010780348 0.95500004 7109752
-0.14097391 0.010780348 0.95500004 7197405
-0.14263241 0.013268145 0.95500004 7999517
-0.14097391 0.014097402 0.95500004 7631231
-0.14097391 0.016585175 0.95500004 7197405
-0.14014468 0.019072946 0.95500004 7633026
-0.14014468 0.022389978 0.95500004 7968681
-0.14097391 0.025707008 0.95500004 8068662
-0.14097391 0.029024038 0.95500004 10041935
-0.14014468 0.031511813 0.95500004 9685417
-0.14014468 0.033170328 0.95500004 10407590
-0.15971774 -0.17801876 0.95800006 5857151
-0.15805404 -0.17801876 0.95800006 5987976
-0.15971774 -0.17552318 0.95800006 5527673
-0.15805404 -0.17552318 0.95800006 5593730
-0.15971774 -0.1721957 0.95800006 5857417
-0.15805404 -0.17136386 0.95800006 6251146
-0.15971774 -0.16970012 0.95800006 7437685
-0.15805404 -0.16886826 0.95800006 6252147
-0.15805404 -0.16637266 0.95800006 4079972
-0.15749948 -0.16359979 0.95800006 3487329
-0.15639034 -0.16054964 0.95800006 7197405
-0.15472656 -0.15971775 0.95800006 7197405
-0.15472656 -0.15722218 0.95800006 5212066
-0.15472656 -0.15389472 0.95800006 6657951
-0.15472656 -0.15139915 0.95800006 7197405
-0.15306288 -0.14890353 0.95800006 6841947
-0.15306288 -0.14557607 0.95800006 8233367
-0.15306288 -0.14224863 0.95800006 9662548
-0.15306288 -0.13892117 0.95800006 9597022
-0.15389472 -0.1364256 0.95800006 9991004
-0.15389472 -0.13393 0.95800006 7912635
-0.15361744 -0.13087985 0.95800006 9215616
-0.15306288 -0.12727511 0.95800006 8627612
-0.15139911 -0.12394762 0.95800006 8563607
-0.15139911 -0.11895645 0.95800006 8693918
-0.15139911 -0.115629 0.95800006 8694423
-0.15139911 -0.11313341 0.95800006 7197405
-0.14973541 -0.10814226 0.95800006 7197405
-0.14973541 -0.1064785 0.95800006 10390856
-0.14890355 -0.10398293 0.95800006 7967599
-0.14862627 -0.10093278 0.95800006 7640186
-0.14807171 -0.097328007 0.95800006 7170877
-0.14807171 -0.094832405 0.95800006 7229493
-0.14640793 -0.093168706 0.95800006 7197405
-0.14807171 -0.091504954 0.95800006 9078905
-0.14640793 -0.091504954 0.95800006 9013370
-0.14807171 -0.089009374 0.95800006 10526022
-0.14807171 -0.08568193 0.95800006 10723108
-0.14640793 -0.084850058 0.95800006 7197405
-0.14807171 -0.082354471 0.95800006 10788910
-0.14807171 -0.079858899 0.95800006 11117606
-0.14640793 -0.078195155 0.95800006 8032531
-0.14640793 -0.076531455 0.95800006 7197405
-0.14640793 -0.074035823 0.95800006 5141152
-0.14640793 -0.070708379 0.95800006 4684460
-0.14474423 -0.067380928 0.95800006 5146025
-0.14474423 -0.064053476 0.95800006 4026281
-0.14308047 -0.059062302 0.95800006 7518630
-0.14474423 -0.052407399 0.95800006 7197405
-0.14557609 -0.049079929 0.95800006 1983848
-0.14640793 -0.046584353 0.95800006 7452557
-0.14640793 -0.044088751 0.95800006 7781002
-0.14557609 -0.040761299 0.95800006 7587750
-0.14474423 -0.038265701 0.95800006 6985291
-0.14308047 -0.037433848 0.95800006 6294324
-0.14197135 -0.034383684 0.95800006 5672581
-0.14141677 -0.031610802 0.95800006 7197405
-0.14141677 -0.029115226 0.95800006 9158043
-0.14141677 -0.025787774 0.95800006 9091993
-0.14308047 -0.0224603 0.95800006 9026453
-0.14224863 -0.019132851 0.95800006 8960655
-0.14141677 -0.016637251 0.95800006 7197405
-0.14141677 -0.014141675 0.95800006 8828551
-0.13975307 -0.0099823512 0.95800006 10985780
-0.13975307 -0.0074867751 0.95800006 10657587
-0.13919848 -0.0038820333 0.95800006 8241053
-0.13892119 -0.001663749 0.95800006 10261037
-0.13892119 0.00083186256 0.95800006 8046253
-0.13975307 0.0041593127 0.95800006 9091711
-0.14141677 0.0074867629 0.95800006 7197405
-0.13975307 0.0074867629 0.95800006 9158007
-0.13975307 0.010814214 0.95800006 7017249
-0.13975307 0.014141686 0.95800006 7934241
-0.13975307 0.016637275 0.95800006 7937066
-0.13892119 0.019132862 0.95800006 8404033
-0.13892119 0.022460314 0.95800006 8100510
-0.13975307 0.025787763 0.95800006 7833217
-0.13975307 0.029115215 0.95800006 7197405
-0.15688008 -0.17857623 0.96100003 5660049
-0.15688008 -0.17607284 0.96100003 5528971
-0.15521109 -0.17607284 0.96100003 5463434
-0.15743639 -0.17301309 0.96100008 5725830
-0.15521109 -0.17273495 0.96100003 5660032
-0.15688008 -0.16939709 0.96100003 6187903
-0.15437664 -0.16939707 0.96100003 6055292
-0.15688008 -0.1660592 0.96100003 4537705
-0.15437664 -0.1660592 0.96100003 5326446
-0.15437664 -0.16355579 0.96100003 3093867
-0.1540985 -0.16133057 0.96100008 5873848
-0.15354219 -0.15771452 0.96100003 3293046
-0.15354219 -0.15437664 0.96100003 5671594
-0.15187322 -0.15354216 0.96100003 7197405
-0.15354219 -0.15187326 0.96100003 5198449
-0.15187322 -0.15103878 0.96100003 7197405
-0.15187322 -0.14853534 0.96100003 5393004
-0.15187322 -0.14603195 0.96100003 7197405
-0.15103877 -0.14269409 0.96100003 7583929
-0.15103877 -0.13935621 0.96100003 7715001
-0.15103877 -0.13601834 0.96100003 7847100
-0.15103877 -0.13351496 0.96100003 8562849
-0.15103877 -0.13101155 0.96100003 7846843
-0.15103877 -0.12767366 0.96100003 8562839
-0.1502043 -0.12433578 0.96100003 7197405
-0.1502043 -0.12099791 0.96100003 8430491
-0.14853539 -0.12183238 0.96100003 7197405
-0.1502043 -0.11849451 0.96100003 7197405
-0.14853539 -0.11849451 0.96100003 7197405
-0.1502043 -0.1159911 0.96100003 8497304
-0.14853539 -0.1159911 0.96100003 9397074
-0.1502043 -0.11265323 0.96100003 8628635
-0.14853539 -0.11265323 0.96100003 8563594
-0.1502043 -0.11014982 0.96100003 7197405
-0.14853539 -0.10931536 0.96100003 10656336
-0.14686641 -0.1084809 0.96100003 9148771
-0.14853539 -0.10681194 0.96100003 10718546
-0.14686641 -0.10597749 0.96100003 7197405
-0.14686641 -0.10347407 0.96100003 7237202
-0.14631011 -0.10069253 0.96100008 7452075
-0.14603195 -0.097632788 0.96100003 7197405
-0.1457538 -0.094573073 0.96100008 7372396
-0.1457538 -0.0906789 0.96100008 7780791
-0.14603195 -0.088453636 0.96100003 7197405
-0.1457538 -0.086228415 0.96100008 9482596
-0.14603196 -0.082612373 0.96100003 8960126
-0.1457538 -0.079552665 0.96100008 7781793
-0.1451975 -0.07593663 0.96100003 7197405
-0.14352852 -0.07593663 0.96100003 5468062
-0.1451975 -0.073433191 0.96100003 7197405
-0.14352852 -0.073433191 0.96100003 7197405
-0.1451975 -0.070929803 0.96100003 4950695
-0.14352852 -0.070929803 0.96100003 4280675
-0.14352852 -0.067591928 0.96100003 5396080
-0.14352852 -0.06425406 0.96100003 1645686
-0.14269407 -0.060916193 0.96100003 4745644
-0.14185962 -0.058412801 0.96100003 7708535
-0.14352852 -0.055909388 0.96100003 9223837
-0.14352852 -0.052571513 0.96100003 7197405
-0.1451975 -0.048399143 0.96100003 7197405
-0.14352852 -0.049233623 0.96100003 6457747
-0.1451975 -0.045895755 0.96100003 6267553
-0.14297223 -0.045617595 0.96100008 7048360
-0.1451975 -0.043392364 0.96100003 7197405
-0.14269407 -0.043392364 0.96100003 6842762
-0.1451975 -0.0417234 0.96100003 6786126
-0.14269407 -0.040888947 0.96100003 6568026
-0.14185962 -0.037551075 0.96100003 6456452
-0.14019071 -0.034213208 0.96100003 6117979
-0.14019071 -0.030875335 0.96100003 10070620
-0.14019071 -0.028371921 0.96100003 11183448
-0.14019071 -0.025868531 0.96100003 10986840
-0.14185962 -0.022530638 0.96100003 9026454
-0.14019071 -0.022530638 0.96100003 11052117
-0.14185962 -0.02002722 0.96100003 7197405
-0.14019071 -0.019192765 0.96100003 10855240
-0.14019071 -0.015854895 0.96100003 10656555
-0.14019071 -0.013351481 0.96100003 10524456
-0.14019071 -0.01168257 0.96100003 10724397
-0.13852173 -0.0066757407 0.96100003 7197405
-0.13852173 -0.0050068288 0.96100003 10192912
-0.13852173 0.0041723377 0.96100003 9091708
-0.13852173 0.0075102081 0.96100003 7197405
-0.13852173 0.010848078 0.96100003 6779252
-0.13852173 0.013351505 0.96100003 7933470
-0.13852173 0.015854906 0.96100003 7197405
-0.13852173 0.018358309 0.96100003 7197405
-0.13852173 0.023365116 0.96100003 9459531
-0.13852173 0.025868518 0.96100003 7964810
-0.15441921 -0.17839041 0.96300006 5463435
-0.15386173 -0.17560305 0.96300006 5594505
-0.15386173 -0.17309442 0.96300006 5725562
-0.1521893 -0.17309442 0.96300006 5724803
-0.15163183 -0.16947088 0.96300006 6057104
-0.15135309 -0.1664048 0.96300006 6051194
-0.15135309 -0.16305998 0.96300006 4219022
-0.15135309 -0.16055135 0.96300006 5343403
-0.15135309 -0.15804276 0.96300006 5343661
-0.15107436 -0.1549767 0.96300006 4354722
-0.1505169 -0.15135312 0.96300006 5146288
-0.1505169 -0.14800829 0.96300006 6330787
